483,493,506,519,532,544,553,561,571,581,591,600,604,605,605,607,610,611,617,626,632,634,634,636,642,651,656,660,664,668,673,678,679,680,679,679,678,677,672,665,656,649,645,642,640,639,643,645,645,644,643,644,648,651,654,655,660,666,668,666,667,669,673,675,672,667,661,654,647,638,628,616,601,589,580,569,559,551,552,556,565,574,580,585,594,598,594,585,576,568,565,567,571,573,570,565,561,559,557,556,553,549,543,534,529,527,527,532,537,542,551,558,561,561,560,562,566,568,570,571,569,565,557,549,536,525,516,503,490,481,468,454,441,431,421,415,409,398,386,375,364,352,351,355,362,369,376,383,389,391,391,391,393,397,404,411,418,426,435,443,454,464,467,465,457,445,436,431,425,416,408,402,390,379,364,347,329,316,309,298,291,285,283,282,281,281,279,274,263,254,246,236,225,213,196,183,173,166,168,175,182,198,217,231,239,245,247,244,234,219,205,197,203,212,224,234,244,249,254,258,258,254,246,242,240,241,244,244,244,237,229,217,204,191,178,164,153,146,141,139,139
470,479,490,504,517,530,542,552,562,575,588,600,609,613,617,622,624,628,635,641,645,649,651,652,655,656,657,656,658,660,664,665,667,668,669,669,669,667,662,654,646,640,635,627,622,621,625,630,633,637,638,643,650,657,661,665,669,675,679,679,677,676,676,675,671,664,658,650,640,630,619,607,593,581,570,558,547,543,545,549,558,568,574,582,588,588,582,571,556,547,543,545,552,556,556,554,551,552,554,557,557,554,549,543,539,538,542,547,550,553,557,562,565,567,571,573,574,574,573,571,566,559,551,542,531,521,514,503,492,482,471,459,449,437,428,420,412,400,386,376,365,358,360,368,372,379,385,394,401,404,406,408,410,414,419,425,430,434,441,455,464,472,474,468,460,448,437,432,423,414,406,398,392,382,372,355,337,326,316,306,296,291,287,287,284,283,283,281,272,262,251,239,225,210,195,182,170,169,174,182,193,208,224,236,243,248,250,246,234,220,206,198,194,200,209,219,230,234,239,247,253,250,245,239,234,231,228,232,234,232,229,219,206,191,174,160,149,140,134,133,132
466,475,484,494,505,519,535,546,557,572,585,596,608,617,625,632,637,642,649,656,659,660,662,663,663,662,658,654,652,651,650,649,649,652,654,657,656,655,651,646,639,627,618,609,603,602,607,611,617,624,630,637,644,651,659,665,671,676,680,679,676,673,670,668,665,660,653,641,630,621,612,599,585,570,559,548,536,534,538,545,553,564,572,577,580,577,567,552,539,531,528,530,532,536,538,538,540,543,548,555,558,558,557,553,551,552,556,560,563,564,566,567,570,575,578,580,579,577,575,570,563,555,545,533,521,512,504,497,489,479,469,459,450,440,429,421,411,396,381,375,369,368,378,382,386,391,398,407,416,422,428,429,431,431,435,439,443,447,460,469,476,477,474,465,456,444,434,424,414,403,394,389,383,375,368,356,342,331,322,312,301,294,285,279,275,271,274,274,272,263,252,237,222,208,194,180,168,164,174,188,201,213,225,234,245,252,253,244,232,220,209,198,191,190,193,202,213,220,226,234,242,244,243,239,229,221,216,218,222,224,222,216,208,193,177,162,150,138,130,127,124
467,478,486,496,506,517,529,543,556,570,583,591,601,616,627,635,640,648,658,666,670,669,667,668,668,664,657,651,645,641,636,633,635,640,644,645,644,642,639,635,626,615,604,596,589,587,587,593,602,612,621,628,635,642,651,658,664,670,675,675,671,666,661,657,654,649,640,631,624,614,603,590,573,559,549,539,527,526,533,541,550,558,565,569,570,564,552,539,527,519,514,514,519,521,522,522,523,528,538,550,560,564,566,563,563,564,565,570,575,578,578,580,583,584,583,579,576,574,571,565,557,549,539,527,513,498,491,484,478,471,461,453,446,437,429,420,407,392,377,373,377,385,391,397,403,408,414,421,427,432,439,443,443,443,445,449,455,463,473,480,483,481,471,462,452,440,427,417,402,393,386,380,373,365,357,348,338,330,321,310,300,290,281,271,264,262,263,264,261,256,247,236,223,208,194,176,164,164,171,185,198,209,221,231,242,252,253,247,235,224,213,197,188,181,181,185,193,204,213,221,231,240,242,238,228,216,210,207,209,211,210,209,205,198,184,170,156,140,130,121,117
487,496,505,512,516,524,534,545,560,574,582,589,600,613,626,634,640,648,658,667,672,672,674,672,668,662,655,647,639,634,628,625,625,632,635,634,633,630,627,623,618,609,596,584,575,572,573,580,587,598,608,615,624,633,639,645,649,656,661,662,661,656,650,643,636,631,626,621,614,605,595,580,567,555,543,532,521,518,521,530,540,550,557,560,560,554,543,531,518,505,497,500,501,503,504,508,511,522,533,546,554,561,565,567,568,568,572,576,581,586,590,591,591,588,581,575,572,568,563,557,551,544,535,524,510,495,482,472,465,457,449,444,435,428,422,414,404,388,382,381,387,393,402,412,420,426,431,435,435,440,447,450,451,452,456,458,466,475,481,485,486,482,469,457,447,437,425,412,399,389,382,374,365,355,346,337,330,325,318,306,297,292,282,272,262,255,251,248,246,245,239,231,221,211,195,176,166,162,173,182,194,207,219,230,244,253,253,248,239,230,220,205,189,177,172,171,180,190,200,211,222,233,237,238,232,220,211,205,201,197,197,200,202,196,186,175,161,148,134,124,116
502,514,524,530,536,542,547,555,565,576,585,594,605,618,629,635,640,645,651,658,664,669,672,670,668,663,655,647,639,631,624,620,619,622,624,624,622,618,616,613,609,600,587,572,563,559,563,569,576,584,592,601,613,621,627,632,637,641,645,650,651,647,640,631,622,616,613,610,605,598,588,577,565,552,538,526,514,507,511,520,531,539,544,549,551,546,535,525,510,495,488,483,483,484,490,496,505,518,531,540,548,554,558,561,562,566,571,575,579,583,588,591,591,585,577,568,564,560,554,547,542,537,528,519,508,493,478,462,454,443,438,433,426,419,413,409,400,392,388,391,395,403,415,426,433,439,442,444,446,448,453,458,460,462,467,470,476,483,488,491,487,479,467,456,446,439,428,417,405,394,382,371,362,349,341,331,325,321,313,302,300,295,287,277,264,253,244,238,239,236,230,220,213,205,192,179,167,167,173,181,190,203,217,228,238,247,249,245,236,229,221,208,193,179,169,165,170,179,192,203,213,224,233,238,234,226,215,205,196,190,189,190,192,191,184,174,162,150,140,130,120
517,525,534,543,552,557,562,566,574,581,588,599,612,623,629,631,633,636,641,646,653,659,661,664,665,662,656,649,641,633,625,613,610,612,612,612,609,604,602,601,596,590,578,564,554,547,550,555,563,572,582,593,601,606,613,623,630,633,638,644,644,640,631,621,612,605,601,596,591,585,576,567,555,546,536,523,509,500,502,507,516,523,526,532,536,535,527,519,506,492,480,469,471,475,482,489,498,509,521,531,536,539,543,546,549,554,559,565,571,578,582,586,586,580,568,559,553,548,543,539,534,526,519,511,500,488,475,458,443,436,430,425,418,412,408,403,401,398,397,403,411,422,432,439,446,450,454,457,460,463,467,471,474,477,477,481,486,492,494,490,486,476,465,454,444,437,430,420,410,397,383,373,364,355,346,337,330,323,315,307,301,292,282,273,261,249,238,233,229,226,220,210,200,190,183,173,162,162,169,178,187,200,214,224,230,236,239,235,227,219,213,205,193,179,168,162,163,173,185,195,204,215,230,235,236,229,219,206,195,187,180,178,179,181,180,172,161,150,140,129,118
525,537,548,563,568,571,574,578,582,586,592,598,607,614,617,618,619,623,627,631,636,643,650,658,660,659,653,648,641,633,622,611,603,603,605,605,600,593,589,586,585,581,571,560,546,539,538,542,551,561,571,580,587,592,600,610,620,629,633,638,638,631,622,612,603,597,591,583,577,569,562,553,544,535,526,513,503,495,494,497,502,507,512,518,524,522,517,508,499,486,468,460,459,464,473,482,492,502,513,519,522,524,527,531,535,539,546,553,562,569,575,579,580,575,568,558,552,546,540,536,529,521,513,505,497,486,471,454,448,444,440,434,424,416,409,405,403,403,405,413,424,433,442,448,453,462,466,469,473,478,481,486,491,492,494,495,500,502,500,492,483,474,461,450,440,433,425,417,407,395,384,374,366,357,350,345,337,329,319,309,300,286,275,265,255,243,233,226,222,219,214,205,192,184,176,163,155,153,164,174,184,196,206,215,222,223,221,216,212,209,207,201,192,177,163,157,158,166,178,187,196,205,217,229,234,228,216,206,196,186,175,169,166,170,171,169,160,149,136,124,114
525,537,556,568,575,576,579,580,578,576,578,586,592,598,602,603,603,604,607,611,619,629,643,651,654,653,648,642,635,627,618,606,601,599,598,596,590,582,576,573,575,571,565,552,540,532,528,536,550,557,564,573,577,584,593,602,615,628,635,638,635,628,618,606,597,590,583,575,566,559,550,541,533,521,508,499,490,486,485,486,490,494,500,507,512,511,506,495,483,469,455,449,451,457,464,476,484,493,500,505,508,510,512,518,522,528,534,545,555,563,571,575,577,576,575,570,566,558,548,541,532,522,514,508,503,492,480,468,464,461,456,448,437,427,417,412,409,408,409,417,430,440,447,455,466,475,482,486,491,498,502,505,506,507,508,508,509,507,501,492,482,471,459,449,441,430,421,412,401,391,381,374,366,357,347,341,336,326,317,306,294,280,269,259,250,243,233,227,223,220,215,206,194,184,174,160,149,150,157,167,181,191,196,201,205,209,208,204,200,199,198,197,188,175,158,152,153,162,172,183,191,198,208,221,226,224,215,205,195,184,172,163,159,158,162,164,161,151,136,121,114
525,539,554,565,570,571,570,567,563,561,565,572,578,583,586,588,585,586,589,596,608,619,632,641,647,645,642,636,629,621,612,603,595,591,587,585,578,572,567,565,562,559,555,546,537,527,525,533,546,554,559,562,566,575,584,595,610,624,635,637,634,625,614,604,594,585,576,566,557,548,541,534,526,513,499,488,481,474,470,471,472,478,485,492,498,498,491,481,470,457,446,439,441,448,459,468,476,484,490,495,498,499,501,507,515,522,529,538,547,556,564,571,575,577,577,576,571,564,558,551,541,533,526,520,514,508,496,489,484,475,467,457,447,435,428,423,418,415,416,424,435,443,453,462,475,488,498,504,510,517,520,522,520,519,517,517,514,509,498,488,478,468,458,450,440,428,418,409,398,387,380,373,363,352,343,335,328,320,311,301,288,276,266,257,251,246,239,230,225,219,213,203,192,183,170,158,150,146,151,161,172,179,183,188,193,197,197,193,189,188,188,187,180,164,152,144,144,152,165,175,185,196,206,213,219,218,211,202,192,178,164,155,149,148,153,158,157,152,137,123,113
525,538,550,557,561,561,553,548,543,546,550,554,560,566,571,570,570,570,574,583,595,608,620,630,635,636,636,633,629,622,611,600,593,583,575,572,569,565,562,557,553,551,547,541,530,521,516,531,543,549,550,552,557,571,583,593,604,616,623,627,626,619,612,604,593,582,570,559,549,541,533,527,519,507,494,482,471,462,453,451,454,458,465,474,483,481,476,468,458,446,436,433,435,443,453,463,472,479,484,486,488,489,495,504,514,520,526,533,540,547,557,565,571,576,577,577,575,572,568,562,553,545,540,533,527,522,512,504,497,487,474,463,453,446,441,435,427,422,424,433,440,450,460,471,480,490,503,515,523,528,532,533,530,527,523,519,514,506,494,482,473,465,456,448,438,428,416,407,396,384,377,370,360,350,339,331,324,316,307,298,288,278,267,257,252,247,237,227,219,214,206,194,183,174,165,157,147,144,145,149,157,164,169,176,180,182,182,181,178,175,176,175,165,155,145,138,140,148,157,168,181,193,202,208,209,206,202,193,183,168,157,148,140,138,142,148,152,148,136,123,111
533,540,545,549,550,544,538,532,529,528,530,539,546,552,553,553,552,557,564,576,588,599,609,616,621,624,625,626,624,618,610,603,594,584,572,565,561,560,557,552,547,542,538,531,520,510,512,520,533,537,540,543,551,562,577,586,594,602,610,617,615,611,606,597,586,576,566,555,543,530,521,514,506,498,486,472,460,447,439,436,439,446,452,459,467,471,463,454,445,436,430,428,436,443,450,455,466,476,475,475,477,483,490,499,511,518,522,530,538,546,554,560,566,571,573,573,573,572,571,566,557,551,547,543,538,532,524,515,507,495,482,471,462,458,455,449,443,436,433,435,444,457,469,477,483,494,506,519,530,539,542,540,536,529,525,518,511,503,492,480,472,463,455,446,434,421,411,402,392,381,372,364,355,345,336,329,321,311,303,296,285,275,263,253,246,242,230,219,211,203,194,183,176,170,162,156,153,148,145,144,143,148,157,162,165,168,169,168,163,164,165,161,154,147,140,134,132,140,151,165,177,187,194,198,199,196,190,183,173,163,153,141,131,128,130,136,145,143,134,120,109
532,534,537,538,533,529,524,516,511,507,511,517,526,537,537,534,539,547,559,569,580,592,601,606,606,608,610,609,610,611,607,603,597,587,575,564,559,552,546,541,536,530,526,522,514,509,510,515,521,527,532,534,540,551,565,575,583,591,597,600,601,600,595,587,576,567,558,547,531,518,507,500,495,487,476,464,452,437,426,419,422,430,439,453,461,460,452,443,434,426,421,426,434,443,445,449,455,463,467,468,473,479,487,495,504,512,519,525,532,540,547,553,556,558,561,564,568,570,571,568,563,558,555,550,546,541,536,526,516,507,495,485,478,475,467,462,456,449,442,441,447,459,472,487,497,506,516,531,545,549,549,545,535,527,521,513,507,501,492,482,472,462,453,444,429,416,406,397,387,377,367,356,346,339,332,323,314,305,297,290,280,268,256,244,236,227,218,209,200,191,182,176,173,168,166,168,167,161,155,147,142,143,144,147,150,152,154,153,151,152,152,149,145,139,133,127,125,132,143,158,170,178,181,184,185,181,176,171,166,157,148,137,127,120,119,126,136,136,131,121,111
526,525,525,523,520,517,510,500,490,487,490,497,506,512,518,526,532,542,553,563,573,584,593,594,593,593,594,595,597,600,603,604,599,591,577,567,557,547,538,532,528,522,516,511,508,505,500,502,509,518,524,529,535,544,553,561,569,576,581,586,588,586,582,575,566,557,546,534,521,509,501,492,484,476,467,458,447,432,418,410,407,413,425,441,448,447,440,432,422,414,413,421,432,435,436,438,446,453,459,463,468,477,487,495,502,509,515,520,527,532,536,540,544,547,552,558,562,565,568,571,571,570,567,563,558,554,547,537,525,515,505,496,492,488,481,473,464,456,449,449,456,468,484,501,512,522,531,543,550,551,550,543,534,523,513,504,499,494,487,479,471,460,452,442,431,417,408,398,388,376,362,353,344,334,324,315,308,297,289,284,273,260,248,237,226,216,206,198,191,183,179,178,177,178,179,183,183,176,167,158,150,143,140,137,135,137,138,138,140,140,139,138,135,131,127,122,123,128,140,151,157,162,164,165,164,159,154,154,151,147,142,133,124,114,110,116,122,128,124,117,108
523,519,512,509,507,505,498,485,477,474,476,485,494,501,507,517,534,542,547,555,564,572,575,576,577,578,579,580,586,592,597,599,599,591,581,571,562,551,541,535,532,525,515,507,501,496,493,495,501,509,517,522,529,535,543,550,558,561,565,571,574,572,569,563,554,543,532,522,512,502,491,482,474,466,461,454,445,430,416,406,402,407,417,434,442,437,430,420,408,405,405,411,420,426,428,433,439,446,450,455,464,478,490,497,500,503,507,512,518,521,524,527,532,538,545,552,557,562,566,571,575,576,576,574,568,561,554,545,536,526,516,508,505,500,493,483,471,457,454,453,461,478,494,511,520,531,545,553,553,551,547,540,528,516,506,497,490,483,477,472,466,458,450,442,433,422,412,401,390,376,362,351,341,329,318,309,300,290,282,273,262,254,245,235,223,214,204,201,196,193,193,196,198,198,200,201,200,191,181,170,161,154,144,138,134,132,132,131,131,131,130,130,130,130,125,121,119,125,133,139,142,144,145,146,144,137,134,134,136,137,134,131,122,112,105,105,114,119,115,108,101
517,507,497,493,491,489,485,475,465,459,459,469,483,493,500,505,516,532,545,550,555,559,559,558,556,558,560,566,573,580,586,589,590,585,580,574,568,559,551,547,542,534,524,512,502,496,491,490,495,501,506,512,517,523,530,538,545,548,552,556,560,561,559,553,540,530,520,512,503,493,483,474,465,459,454,449,442,429,416,405,400,401,411,426,437,431,420,406,396,391,392,402,410,415,418,422,428,436,445,456,467,478,488,492,494,495,496,499,503,509,513,519,525,530,539,548,554,561,566,572,577,581,583,579,572,562,554,550,545,539,530,521,516,510,499,487,474,462,459,462,470,486,505,518,526,539,551,556,556,552,545,534,520,509,501,493,484,475,469,463,459,455,447,440,432,422,411,402,390,377,361,347,335,323,308,302,292,281,274,265,258,251,247,243,235,230,229,230,222,217,218,221,217,216,217,217,211,202,192,185,177,168,159,148,142,140,136,136,134,135,134,137,139,137,133,127,122,120,125,128,128,127,128,128,125,120,117,117,121,124,125,125,120,110,102,98,104,107,104,100,96
504,496,487,477,470,466,465,460,452,446,446,455,467,480,488,496,507,522,535,544,547,548,545,539,536,535,541,551,559,567,572,575,575,575,574,571,567,561,556,552,546,537,526,517,505,493,484,483,487,491,495,500,503,508,514,520,527,536,540,542,547,548,546,539,530,520,512,503,495,487,479,470,461,454,450,444,436,426,413,403,397,397,407,421,427,427,414,399,389,383,384,389,398,404,409,415,425,437,447,454,463,470,476,481,484,485,484,482,487,495,505,511,517,528,536,546,554,560,567,575,580,582,585,586,578,567,560,556,555,552,545,538,533,520,507,494,482,473,472,473,484,502,517,526,533,543,554,558,558,553,545,530,517,507,499,491,484,475,468,461,457,452,443,434,426,417,407,395,383,371,355,342,329,314,303,294,283,278,274,265,260,257,257,257,257,258,258,252,245,239,239,238,236,235,234,230,225,216,210,200,191,181,168,158,151,151,151,154,153,152,152,150,148,145,139,133,126,120,119,119,118,118,119,121,118,115,109,106,107,108,110,111,110,107,100,95,92,92,93,92,91
493,487,476,464,455,449,447,446,442,438,438,442,454,472,483,491,501,513,526,533,535,534,532,527,520,518,524,533,542,550,556,560,560,561,561,560,555,553,550,547,542,536,527,517,503,488,479,474,478,481,483,484,486,489,497,507,515,524,531,535,536,536,534,529,521,514,505,496,490,483,475,467,458,450,442,433,425,416,406,398,392,392,403,414,421,423,415,404,391,379,374,376,385,395,404,413,422,433,441,448,451,456,461,466,467,467,466,471,478,491,498,503,512,522,533,544,552,559,566,575,582,587,590,590,584,576,571,566,561,558,551,545,538,527,514,502,494,486,487,493,501,514,526,537,542,548,558,559,556,551,542,533,520,509,501,494,487,482,476,470,461,452,441,432,424,412,400,388,375,364,351,338,326,314,302,291,285,283,284,281,274,276,278,280,281,282,283,277,268,261,264,261,258,257,256,250,239,231,226,213,198,187,177,166,160,160,164,168,171,170,165,162,157,153,147,142,136,126,120,120,123,125,130,131,127,126,124,114,98,98,96,99,102,101,96,90,85,83,82,84,93
477,473,467,457,447,439,436,433,430,426,431,440,453,466,477,485,495,507,517,524,526,526,522,515,507,505,511,519,527,533,535,537,540,542,542,543,542,542,539,536,533,529,524,516,503,492,482,471,467,466,465,466,469,474,485,498,508,516,523,526,527,527,525,520,514,505,497,492,487,481,473,464,454,445,437,426,415,406,399,391,385,386,398,408,413,417,416,406,392,379,368,369,376,385,395,404,412,419,427,434,438,443,449,451,451,452,455,463,475,485,496,502,509,520,530,539,550,557,564,572,581,589,592,592,589,585,579,574,566,559,553,546,540,533,523,514,503,498,499,507,514,523,534,544,551,556,557,556,552,547,541,531,520,511,506,501,496,490,487,480,470,458,448,437,423,411,397,383,370,359,346,337,329,322,311,307,302,300,301,298,294,294,296,297,298,297,298,293,288,289,289,286,282,276,270,263,249,239,232,219,205,193,182,172,167,168,177,182,182,180,171,165,165,162,159,152,145,137,131,133,136,146,151,154,150,147,144,130,116,104,97,95,96,96,92,87,86,82,78,81,88
467,461,456,448,438,430,424,420,415,414,417,433,446,458,467,478,491,500,508,516,521,522,515,503,494,493,498,503,508,513,517,518,519,521,523,525,528,528,527,525,523,520,517,512,505,497,482,469,460,455,452,454,460,467,478,489,497,506,515,519,520,519,518,513,506,498,490,486,482,477,470,461,451,442,430,415,401,396,388,381,377,383,391,398,406,413,414,405,393,379,368,365,368,378,390,394,398,404,410,419,426,430,435,439,442,445,449,459,470,486,497,503,511,521,531,539,548,556,563,571,581,586,591,593,592,588,584,576,568,561,557,550,543,539,535,526,519,515,517,522,526,533,542,552,556,557,554,552,548,542,534,526,516,509,505,501,499,495,492,486,476,466,454,442,428,414,399,385,372,363,353,348,346,344,338,330,321,317,314,314,312,314,317,314,312,315,316,312,313,316,312,306,298,286,277,265,251,240,231,222,210,200,191,185,181,186,192,194,190,183,172,168,170,173,172,166,158,152,147,144,149,156,167,169,166,164,157,146,133,120,108,99,97,96,95,95,92,86,80,80,85
458,447,440,434,426,418,412,407,404,401,408,422,436,445,456,470,486,497,506,515,521,520,512,499,487,483,481,485,491,497,504,504,504,505,507,511,514,517,518,517,515,511,505,503,501,493,482,469,456,447,442,447,454,465,476,484,492,502,512,517,518,517,513,508,501,489,480,475,471,468,465,457,446,436,419,403,394,385,378,371,371,376,383,394,405,408,407,401,390,379,369,361,359,368,380,385,388,394,402,411,417,421,427,432,438,443,449,459,471,483,495,503,513,524,534,542,549,556,563,572,579,586,592,592,589,586,583,578,569,565,560,556,552,551,547,541,533,531,532,534,539,545,551,554,555,554,551,546,540,534,529,522,513,505,498,495,494,493,491,486,479,469,458,444,431,418,403,390,382,382,374,366,364,360,354,347,338,331,331,332,333,334,335,333,332,332,334,330,332,330,322,312,302,289,277,263,250,239,231,224,216,211,206,206,205,204,203,200,194,185,176,172,174,179,179,175,169,164,160,160,163,171,180,184,185,182,176,164,150,138,126,118,110,104,108,110,107,98,85,83,84
453,439,428,421,414,408,404,399,396,396,400,414,429,438,447,466,482,494,502,510,517,515,509,498,485,473,468,468,470,476,481,485,488,490,492,496,500,505,509,510,509,501,494,491,489,485,475,464,452,441,438,441,450,464,474,479,486,497,506,513,515,513,509,504,491,479,469,462,459,457,453,445,436,427,415,403,391,380,369,364,363,371,380,388,399,402,399,388,380,373,362,354,351,361,368,374,380,386,395,408,417,424,434,443,448,450,455,462,473,486,497,503,512,524,534,542,550,557,563,569,578,587,592,592,589,585,582,578,574,571,568,565,562,559,556,553,548,546,543,543,548,552,555,555,553,550,545,536,530,528,525,519,511,505,497,489,488,486,484,482,476,467,454,441,430,419,411,405,405,406,403,397,390,381,369,361,354,349,349,351,355,351,352,351,349,347,343,340,337,332,321,309,298,287,274,262,251,243,238,232,227,219,214,217,219,217,212,203,195,187,181,181,183,189,191,186,180,177,176,176,177,182,189,196,198,194,189,180,169,154,141,133,127,125,127,128,126,112,95,89,85
457,440,427,417,408,403,397,390,387,390,396,407,419,429,444,459,476,488,496,503,509,513,506,497,484,471,462,454,451,454,460,464,466,468,474,480,485,494,500,503,499,494,487,482,478,473,464,454,444,436,435,443,453,463,467,471,477,487,495,503,507,507,503,492,480,470,462,452,445,441,437,431,424,417,408,396,383,370,363,357,355,360,370,384,392,392,382,372,363,359,352,347,352,362,371,376,383,389,395,405,423,438,446,454,460,466,468,472,481,493,502,510,517,525,534,541,550,560,568,574,579,586,591,591,587,584,580,576,573,571,568,566,564,563,561,559,557,552,549,547,548,551,553,551,548,542,534,526,522,520,519,516,510,506,500,491,484,478,474,472,468,459,444,434,426,421,417,417,421,424,421,413,405,394,383,374,368,364,365,372,373,368,369,369,364,357,351,344,337,328,317,305,295,283,273,262,258,251,248,242,234,224,220,222,227,223,214,205,196,189,188,190,195,200,203,199,195,192,190,190,189,192,198,204,207,205,199,190,178,166,154,148,142,138,136,134,129,117,105,93,84
455,442,429,415,403,392,385,381,380,384,392,401,412,426,441,454,467,481,493,503,510,509,504,498,483,469,458,444,435,431,438,444,445,451,459,466,474,483,491,493,492,488,482,475,467,460,452,444,436,431,436,446,455,456,455,456,464,473,483,492,497,499,492,485,475,466,456,444,435,429,425,420,414,406,397,388,375,366,358,351,350,354,369,379,385,379,369,357,351,346,341,346,355,370,381,389,394,397,401,410,425,441,452,461,470,475,478,481,489,499,510,519,525,531,534,542,551,561,570,576,582,586,588,587,584,580,576,573,571,568,566,565,564,563,561,557,553,549,546,543,544,546,548,547,542,536,528,521,514,512,511,510,511,508,504,496,487,476,467,463,459,450,441,433,430,430,431,434,436,437,432,424,412,404,393,388,383,378,379,382,385,386,384,381,375,368,359,349,339,328,315,304,294,284,277,274,270,267,258,248,240,233,232,234,235,228,217,207,198,192,196,200,205,211,214,213,212,212,209,207,206,207,211,214,213,211,207,197,186,176,169,163,155,148,141,136,130,122,113,99,88
455,443,428,413,398,387,378,373,375,385,392,399,411,424,437,452,467,480,491,500,503,502,498,491,480,466,451,437,425,416,416,421,429,438,447,456,464,471,479,484,484,480,473,463,453,445,440,435,428,427,435,448,448,445,441,442,448,458,468,477,484,488,487,479,470,460,447,436,426,421,414,408,402,394,387,380,369,358,351,347,350,359,371,380,378,371,360,348,338,334,340,350,366,377,387,393,400,405,413,422,433,448,461,469,477,484,489,495,500,506,513,524,533,536,540,545,550,557,566,574,580,585,585,584,580,576,572,571,568,566,566,565,563,560,556,553,547,543,539,536,536,538,542,541,540,531,524,516,509,504,501,504,508,508,506,500,492,480,470,460,449,442,438,435,435,441,444,449,449,449,446,438,430,420,413,406,401,400,398,398,400,398,391,384,380,372,361,351,340,328,317,305,296,287,283,281,279,274,267,254,246,245,246,247,241,230,218,209,200,201,206,211,216,221,225,223,225,226,225,225,225,224,223,221,217,215,212,207,198,188,179,171,163,156,148,143,138,131,123,113,102
449,439,425,409,396,384,373,367,373,384,396,406,414,424,435,450,464,476,486,494,499,497,492,484,473,462,450,437,418,404,397,403,412,422,432,442,449,458,466,469,471,468,462,452,441,436,430,424,419,425,437,443,443,436,429,430,433,439,447,457,469,476,479,471,463,455,441,429,422,411,401,394,389,385,380,369,356,349,340,342,349,354,363,373,376,368,354,341,331,329,336,354,371,382,392,400,407,418,428,437,446,457,466,476,485,492,499,506,514,518,523,530,538,544,550,555,559,561,566,573,579,582,582,580,578,575,572,568,564,564,564,563,559,557,553,546,539,533,529,526,525,530,533,534,531,526,520,514,506,497,493,495,501,503,502,499,491,483,470,457,446,440,438,439,445,452,457,462,465,462,459,455,451,442,431,422,417,417,418,416,411,405,396,386,379,368,356,347,337,326,315,307,298,293,290,288,283,277,269,263,256,256,256,250,240,229,218,211,205,209,216,223,227,234,238,242,245,243,241,240,238,234,230,225,221,220,218,214,207,198,187,178,171,166,160,154,149,145,136,128,116
451,439,423,408,394,381,370,366,368,384,398,408,417,425,435,451,464,473,481,488,491,490,486,477,470,459,446,430,414,400,390,389,397,407,417,426,433,439,447,453,456,455,450,440,431,424,418,413,413,419,430,438,439,430,421,414,416,420,428,438,449,459,463,460,456,445,432,422,412,401,391,384,380,376,368,356,347,336,331,337,345,355,365,373,370,361,349,338,331,330,340,350,364,382,392,401,413,426,438,448,456,465,474,483,491,499,507,516,524,531,535,541,547,553,562,572,575,574,573,577,580,581,581,580,579,575,569,564,561,560,560,558,555,553,547,539,531,526,520,518,518,521,523,522,519,516,514,510,500,492,486,488,494,499,497,492,484,475,464,452,445,442,444,449,457,464,469,476,479,477,472,469,463,459,446,438,431,432,430,425,420,413,402,388,378,367,357,348,339,327,317,310,307,303,301,296,289,281,274,271,268,268,262,255,241,230,221,214,214,218,229,237,243,248,255,260,261,257,253,249,244,239,234,229,226,224,223,218,212,203,194,185,180,173,166,158,153,147,139,129,120
456,445,429,410,395,381,369,360,363,376,390,406,417,423,433,445,459,468,477,485,490,490,484,475,467,458,443,425,411,398,387,380,384,394,402,411,418,424,429,436,442,445,441,434,425,415,407,405,409,419,428,434,431,422,410,401,400,403,413,422,428,436,443,451,447,439,428,416,405,395,387,379,373,364,354,347,339,328,327,333,344,353,360,363,360,353,341,331,326,330,337,347,362,375,386,400,415,430,445,456,462,468,479,489,498,506,514,522,529,535,541,546,550,559,569,578,580,580,580,583,585,584,583,584,582,578,571,564,560,557,556,554,553,549,543,537,529,524,519,512,511,512,512,511,507,506,504,500,493,486,481,482,487,490,489,486,478,470,459,451,446,446,450,458,467,474,480,483,486,484,481,472,465,460,455,449,443,438,434,430,426,420,406,392,382,371,361,351,345,335,324,323,322,318,311,303,294,286,284,283,282,278,269,257,244,234,226,222,224,230,237,247,256,260,262,266,267,263,258,252,246,239,230,226,224,221,220,217,214,208,201,191,182,176,169,161,153,147,138,127,117
456,449,436,420,404,386,371,360,360,364,379,395,407,414,426,441,452,462,471,482,487,488,481,473,465,454,438,422,410,397,384,371,369,375,382,390,399,407,413,419,425,432,433,431,421,410,402,398,406,413,420,424,420,412,405,398,392,391,398,405,410,416,427,435,436,432,422,411,400,391,382,375,367,356,348,341,332,324,320,325,336,347,351,352,349,341,329,320,320,329,339,348,360,372,385,399,416,432,444,453,461,469,478,488,496,505,513,521,527,532,537,543,549,558,568,573,575,578,583,589,591,589,589,588,587,581,576,570,564,559,556,555,552,548,546,545,540,533,526,516,506,504,502,499,495,493,492,490,486,480,474,472,473,476,479,476,470,461,455,449,445,449,455,465,473,480,484,488,490,488,482,473,463,457,451,443,438,434,430,427,427,421,409,396,385,375,366,360,356,348,340,336,334,326,316,306,298,293,297,298,293,286,275,260,248,238,231,233,239,245,247,255,259,260,260,264,266,264,259,252,245,233,223,218,212,209,209,210,213,210,206,198,188,180,172,164,157,149,140,130,118
447,443,436,429,413,394,375,361,356,361,372,385,395,408,424,436,446,455,466,475,483,484,480,473,462,450,436,423,409,396,381,365,357,356,363,373,381,387,392,398,406,420,426,424,416,408,400,394,394,398,404,409,410,407,401,393,385,382,386,390,395,400,408,416,420,419,413,403,393,385,378,371,363,353,345,338,330,322,317,323,332,340,345,344,338,329,319,310,308,318,332,343,352,369,386,399,412,428,443,453,461,468,476,484,493,501,510,518,524,528,530,535,542,551,558,564,568,572,576,582,586,588,590,591,589,588,585,579,574,568,563,563,563,558,559,558,551,544,535,524,511,503,498,492,486,483,481,480,478,473,468,463,461,464,468,466,459,453,448,445,449,458,465,473,481,488,494,495,492,487,480,468,458,450,440,433,428,424,423,422,422,420,412,402,391,384,378,374,370,364,357,345,337,327,316,307,301,303,308,309,304,293,280,265,253,243,241,244,249,251,254,256,254,253,252,256,258,260,258,252,244,231,220,211,203,195,194,199,204,207,206,200,192,184,175,166,158,151,142,132,122
430,427,428,422,407,388,373,364,359,362,372,381,392,405,418,429,440,450,459,470,479,481,479,471,461,447,434,422,410,398,383,366,351,345,348,357,368,372,376,383,393,404,413,410,406,402,397,391,386,387,390,394,392,388,382,376,371,373,376,379,381,385,390,399,407,408,402,394,388,381,373,364,353,345,342,334,325,315,309,313,324,331,336,333,328,320,314,309,306,317,329,340,351,366,381,392,406,424,439,449,458,466,472,481,490,499,505,511,516,521,524,527,533,541,547,553,559,565,568,572,577,581,586,588,590,591,592,590,587,581,577,574,574,573,569,564,555,546,538,528,518,510,504,494,486,478,473,471,469,465,462,459,455,457,457,456,453,447,444,449,456,464,474,481,488,495,500,498,491,482,471,461,451,440,430,422,415,411,408,413,414,413,412,406,401,394,390,383,377,370,362,349,335,325,314,307,308,309,313,316,311,299,285,272,260,256,254,254,256,258,259,255,250,244,242,243,247,247,247,249,245,238,224,212,201,190,188,188,193,198,200,199,192,184,174,164,159,151,141,134,124
411,412,412,407,392,376,365,360,357,359,364,376,392,404,416,426,439,450,459,467,473,475,470,461,451,440,428,417,405,394,382,366,349,340,335,345,353,359,366,370,376,390,394,392,389,390,391,386,378,371,369,372,374,370,366,361,356,358,361,360,362,367,374,383,392,392,391,387,381,374,366,357,349,341,334,327,317,309,303,305,312,322,322,319,313,311,311,310,317,323,332,342,353,363,371,382,394,410,426,439,451,461,468,476,485,494,500,504,510,516,520,523,528,534,538,543,549,555,559,562,566,572,576,581,585,589,591,592,594,591,586,582,580,577,571,565,557,547,537,528,520,513,507,498,489,480,471,467,464,461,459,457,455,453,452,449,446,443,449,456,463,474,483,489,497,502,502,498,488,474,463,455,445,435,426,415,406,395,395,398,402,406,407,406,403,400,393,383,374,368,361,350,337,328,319,316,316,317,320,320,315,305,292,281,274,269,267,266,267,269,265,258,251,243,236,232,231,232,237,241,241,237,230,219,206,193,182,178,182,188,194,196,191,184,176,168,162,153,143,134,123
395,394,391,384,375,363,356,354,354,354,359,375,390,404,417,428,438,450,458,462,468,466,460,452,444,436,425,413,400,391,380,366,347,331,324,328,334,342,350,357,366,372,376,375,376,378,382,378,370,358,355,358,358,357,354,345,340,337,341,343,345,353,361,369,376,381,381,376,370,365,361,354,345,335,326,316,310,304,301,302,306,310,308,303,301,305,311,319,327,337,344,352,359,363,368,376,387,399,414,431,446,457,465,472,481,490,497,501,509,517,520,523,528,533,537,538,543,548,552,554,558,563,569,576,583,587,589,592,596,595,589,584,580,574,568,562,555,548,538,532,524,516,510,503,494,485,476,470,465,462,461,464,462,460,454,448,448,449,456,466,476,486,493,501,506,507,504,498,484,469,458,450,439,428,418,407,394,386,381,383,390,396,399,399,398,397,390,380,371,365,358,348,340,334,329,326,324,324,321,316,311,305,295,287,280,275,276,276,276,275,270,263,255,246,236,228,223,221,225,230,233,233,229,221,208,194,182,176,174,178,186,190,190,188,182,175,168,157,146,136,126
378,373,371,368,359,351,347,348,350,354,363,376,391,406,417,426,434,443,452,457,459,458,453,447,441,432,422,411,400,390,381,365,346,327,319,312,314,322,332,343,351,357,359,359,361,368,372,374,365,353,345,341,342,344,336,328,321,326,329,328,335,343,351,356,362,364,361,358,354,355,354,353,342,332,322,312,305,298,295,294,298,299,297,293,292,296,307,317,326,337,348,357,364,370,373,376,383,395,408,421,438,451,460,469,479,490,496,502,510,515,519,522,527,532,533,535,539,544,546,550,556,563,570,577,583,586,589,592,594,593,588,582,576,569,561,555,550,545,538,533,527,520,515,508,501,496,487,478,471,467,469,473,474,471,467,463,459,460,466,474,481,489,499,505,510,507,502,492,482,466,455,444,432,418,408,397,388,379,373,374,379,385,387,387,386,383,381,374,367,362,358,349,340,335,331,328,325,321,314,307,302,299,296,290,283,283,283,283,277,273,269,264,258,248,237,229,221,216,214,218,223,225,227,221,212,197,182,173,167,169,175,181,187,188,184,176,167,157,146,137,127
361,356,353,351,344,336,331,333,341,350,362,375,391,404,412,419,427,438,446,452,455,453,448,441,433,427,418,406,396,388,379,368,350,335,322,308,304,305,317,328,336,341,343,343,344,350,360,365,359,348,336,328,327,327,322,315,312,312,317,321,324,332,339,344,345,343,341,338,339,341,346,348,343,334,324,314,303,295,290,288,288,287,287,288,291,298,306,314,323,332,342,353,364,374,378,381,385,397,413,425,436,444,456,467,477,486,493,499,505,510,515,520,524,528,529,530,534,538,545,552,559,567,575,580,586,590,592,594,592,587,584,576,570,562,552,546,541,536,532,527,522,520,516,511,506,501,493,482,475,473,475,481,484,481,479,474,469,467,470,478,486,494,501,505,506,502,493,483,471,459,449,438,425,410,400,391,380,371,365,365,372,376,377,375,372,370,367,365,360,356,354,345,336,331,328,324,319,313,303,294,288,288,290,290,289,289,290,284,276,268,261,257,254,248,242,233,224,215,209,209,213,219,221,219,212,200,186,174,162,157,162,171,179,182,182,175,166,157,148,138,127
349,343,338,333,330,326,324,327,339,351,363,375,385,395,403,410,419,428,436,441,446,447,444,437,429,421,414,405,394,385,377,367,353,338,323,309,296,296,304,314,320,327,332,331,331,337,348,354,355,345,333,322,318,315,313,307,300,301,305,309,314,320,328,331,331,329,326,326,327,334,341,347,343,335,325,317,310,300,293,287,282,282,286,291,304,311,316,320,324,330,337,346,355,367,379,389,401,413,423,431,439,447,457,466,474,481,487,493,499,506,512,518,525,528,529,531,535,540,548,555,562,571,577,582,589,594,596,593,588,584,578,571,565,556,545,538,533,528,524,520,516,515,513,510,507,501,492,483,475,475,479,485,490,490,487,484,479,475,475,481,488,496,499,501,498,489,477,467,458,449,440,432,421,406,396,386,376,364,355,355,360,366,367,364,359,358,357,355,350,346,343,337,330,326,320,314,309,301,291,280,275,276,280,283,285,288,287,282,274,265,255,249,246,244,240,234,227,219,211,204,206,210,212,213,210,202,188,173,161,155,155,161,167,172,174,169,162,156,149,140,131
340,335,329,323,314,309,308,323,340,350,358,367,376,386,395,402,411,419,425,431,436,440,438,431,423,415,408,400,391,382,374,365,355,339,323,307,293,290,290,298,305,313,315,316,319,328,340,350,352,345,335,324,312,307,303,299,293,291,291,294,299,305,311,314,316,315,315,314,322,331,339,340,336,326,318,313,308,301,293,285,281,282,287,300,313,323,332,335,340,342,344,346,352,365,377,389,401,411,422,434,444,452,459,465,471,478,484,490,496,504,513,522,528,533,536,537,539,543,548,556,564,572,578,582,589,595,595,590,584,580,574,566,559,552,543,535,529,523,518,514,512,509,505,503,501,497,489,480,475,476,482,489,494,496,495,493,488,482,482,484,491,497,499,497,489,477,464,454,446,437,430,422,412,400,390,379,366,355,347,345,349,356,357,353,350,348,344,341,336,330,328,327,323,316,308,302,296,290,279,270,265,266,269,274,276,277,276,276,270,262,253,243,238,234,231,228,225,219,211,203,200,200,203,205,205,199,187,176,165,155,150,148,153,157,161,160,156,151,144,137,132
331,327,321,313,306,302,308,319,335,344,351,359,369,379,387,394,401,411,417,421,426,430,432,430,421,409,401,393,384,376,369,363,355,343,329,313,300,290,285,287,290,295,297,297,301,312,328,338,344,344,340,330,316,305,298,293,286,282,283,284,287,293,298,300,302,302,302,310,319,329,332,329,323,314,306,298,294,291,285,280,278,282,290,301,314,326,339,352,357,357,356,355,357,364,375,387,398,408,421,438,449,455,459,463,469,475,483,492,498,505,514,522,530,536,540,544,546,549,553,558,564,573,579,584,589,591,590,585,580,574,567,558,552,546,539,531,523,516,513,510,508,505,499,495,494,491,485,481,477,478,485,492,498,503,502,498,491,487,486,487,492,496,499,494,482,467,455,443,435,427,419,412,402,392,382,371,360,350,341,336,340,346,349,346,341,336,332,328,323,317,315,316,314,309,302,293,287,277,265,257,256,257,259,262,264,264,265,266,264,261,254,247,236,230,226,221,218,214,207,201,196,195,195,195,195,191,183,177,166,155,147,142,141,144,147,146,143,138,133,129,126
312,312,308,303,298,300,310,327,335,342,347,357,366,373,379,386,394,402,407,410,415,420,426,425,418,407,398,388,378,370,363,359,351,338,328,317,304,291,281,273,276,281,283,286,290,297,309,323,333,340,340,334,326,317,310,300,289,281,278,276,277,281,286,287,289,293,303,311,319,323,324,321,313,301,291,283,278,276,275,276,279,283,290,300,312,326,341,356,367,370,369,368,367,368,376,384,395,404,420,434,446,453,458,461,466,473,483,492,499,507,515,523,530,536,543,549,555,559,560,561,568,574,580,584,585,585,582,578,573,566,558,550,544,537,529,522,513,507,506,505,504,501,496,492,488,485,482,482,481,484,490,497,502,503,501,495,490,487,486,488,490,495,494,486,475,464,451,439,429,420,412,403,393,383,373,363,356,346,335,330,333,337,338,334,329,323,318,315,312,307,305,305,306,303,297,288,275,260,250,245,244,247,250,252,253,254,254,256,256,254,253,248,243,237,230,223,218,215,212,207,202,196,192,191,188,182,176,170,164,156,146,140,137,138,137,134,132,127,122,119,116
292,291,289,289,292,302,316,326,334,341,347,353,363,370,373,378,386,392,394,399,405,413,417,418,410,401,393,383,373,363,357,351,340,331,321,313,301,290,279,269,267,268,271,276,285,291,300,314,324,331,333,336,334,331,324,317,301,288,279,272,270,272,274,277,280,288,298,307,311,313,313,310,300,286,278,272,267,270,276,285,286,289,296,305,315,325,342,360,372,380,382,381,380,381,382,385,394,403,415,429,438,446,453,459,465,472,480,490,502,512,520,528,535,540,546,553,561,566,567,570,574,578,581,582,582,579,575,570,565,558,552,545,537,529,523,514,506,503,501,500,497,494,490,488,486,483,482,483,486,489,493,497,499,497,492,487,483,479,477,479,485,488,487,479,472,462,453,442,430,420,410,399,387,376,364,357,348,338,329,325,325,326,325,321,315,311,308,306,303,300,296,297,301,298,293,282,267,253,242,236,234,237,239,239,239,239,239,241,244,245,245,245,245,243,241,235,230,225,225,221,215,207,200,196,192,181,172,167,162,157,149,141,138,137,133,131,126,120,116,111,108
277,271,274,280,288,301,311,319,329,336,342,347,354,360,364,370,376,380,382,385,395,403,410,410,406,399,391,382,372,360,350,340,332,323,314,304,296,287,276,266,258,259,263,269,279,289,297,308,318,322,324,327,330,330,327,319,309,297,285,276,271,268,270,274,279,286,293,297,300,301,300,296,285,277,269,266,269,276,288,294,298,302,309,317,325,333,348,364,375,385,390,391,391,392,393,394,397,404,414,424,434,443,451,457,463,469,476,489,502,514,522,530,538,546,551,556,565,572,576,579,580,582,582,581,578,574,569,564,557,551,547,540,535,529,521,514,507,502,499,495,490,485,484,484,485,483,483,485,486,488,488,490,488,485,480,474,470,466,463,466,469,474,474,469,464,455,448,443,434,422,412,402,391,379,366,356,346,336,326,321,317,316,312,310,306,299,295,294,294,291,289,294,297,295,289,281,268,255,242,230,225,226,229,226,223,221,223,227,233,234,234,235,237,239,241,239,236,233,230,230,228,222,215,210,202,192,181,174,169,164,160,155,151,148,144,141,135,127,117,108,101
268,263,263,271,284,295,303,312,320,328,334,340,345,350,354,359,364,369,372,376,383,393,399,403,404,399,392,383,373,361,346,336,326,319,308,298,291,281,270,259,253,255,257,262,271,282,292,303,311,312,311,313,318,322,322,317,312,303,292,282,270,264,262,271,283,288,289,291,291,289,285,281,277,270,266,267,275,283,293,305,311,318,326,335,340,346,355,367,379,388,394,396,397,400,407,409,411,412,419,429,438,445,452,457,463,469,477,488,500,511,520,528,539,548,553,561,570,576,578,578,581,580,579,578,575,570,565,559,553,548,542,537,533,527,520,514,508,502,497,493,487,480,477,478,478,478,478,479,479,480,480,479,476,474,468,463,458,453,450,449,452,456,458,457,451,444,440,437,429,420,414,407,398,386,375,364,351,339,330,320,313,306,300,298,293,286,281,282,281,279,281,285,289,286,281,273,262,253,242,229,223,222,221,218,215,213,215,220,224,225,223,221,223,231,233,232,230,227,227,231,233,232,227,223,215,206,198,191,183,179,176,171,170,169,163,156,148,137,124,110,102
267,262,258,260,270,285,294,301,308,315,324,332,336,341,347,349,354,359,364,368,375,385,393,397,403,401,395,386,377,368,355,341,330,319,309,306,299,290,279,268,257,251,249,255,269,282,294,302,305,302,298,299,304,310,315,315,312,305,295,282,269,261,260,268,280,286,287,285,280,274,271,269,266,267,267,272,280,289,299,311,322,331,343,350,353,357,365,377,388,398,404,403,404,408,415,420,420,425,432,441,449,456,459,461,466,471,479,489,501,510,518,527,537,547,555,563,570,572,573,575,575,575,573,573,572,566,560,556,552,547,541,537,532,524,517,512,508,501,495,490,483,475,471,468,467,470,470,469,470,470,469,467,465,462,457,450,446,444,441,439,439,442,445,444,442,439,435,429,421,415,411,408,401,392,382,373,360,350,336,325,314,302,294,286,280,272,270,270,270,268,270,273,276,275,269,259,252,246,238,228,221,218,214,211,206,202,204,211,217,219,214,208,209,214,221,223,219,216,217,221,228,232,233,238,229,221,212,203,197,193,189,183,177,169,163,157,146,135,124,112,104
264,257,252,259,269,278,285,289,293,300,309,318,324,329,334,339,344,350,357,364,372,380,389,395,399,401,397,387,380,373,362,351,341,332,323,316,309,297,285,273,260,251,247,261,275,286,293,296,295,290,286,285,292,301,308,311,309,302,292,282,270,262,260,269,277,283,281,276,269,264,262,261,265,269,271,278,287,295,304,317,330,342,354,363,368,371,378,385,396,406,412,413,414,415,421,423,426,431,440,448,455,464,468,471,473,476,480,491,502,511,517,525,538,550,558,564,569,572,573,573,572,569,568,566,564,560,554,551,549,547,542,538,532,524,515,509,505,499,492,485,477,469,466,461,458,459,460,460,460,459,456,457,456,451,444,439,437,436,435,428,427,431,435,437,435,433,428,421,415,409,404,399,395,391,382,373,366,355,341,329,317,306,294,285,274,264,260,258,258,257,259,264,266,264,254,246,239,235,230,223,218,213,207,201,194,191,195,201,208,209,203,197,195,200,206,208,207,205,206,211,217,225,233,238,238,230,222,216,209,202,195,185,174,164,156,149,142,132,122,112,103
253,245,243,246,260,270,274,276,279,284,293,303,313,320,324,329,337,343,351,360,368,377,383,388,391,392,390,387,379,371,362,353,344,335,326,318,307,296,284,271,259,248,248,256,271,283,289,291,286,281,275,277,285,295,301,304,302,296,288,280,268,259,260,268,276,278,274,267,261,258,257,261,267,275,279,287,296,303,313,325,339,352,364,373,380,389,393,398,405,414,420,425,425,424,425,428,431,441,450,456,462,468,474,477,479,481,485,492,503,511,519,529,540,552,562,569,577,578,578,576,572,569,565,559,556,551,549,547,545,543,538,535,529,522,513,506,500,494,490,483,473,466,459,454,450,448,451,451,449,448,447,448,446,442,435,429,426,425,421,419,418,422,426,427,427,424,419,415,409,400,395,390,387,383,376,369,363,355,344,331,320,309,299,288,274,262,254,250,246,245,246,250,256,253,245,235,228,222,215,214,214,209,201,194,186,180,181,187,194,196,193,189,187,188,189,192,191,191,193,200,207,215,223,229,231,228,221,216,212,204,192,184,170,156,148,141,133,125,119,112,103
241,232,225,234,247,258,261,263,267,273,282,295,304,313,319,327,335,342,348,355,366,370,373,376,379,379,379,375,371,367,361,353,341,330,320,313,304,293,279,266,252,241,239,247,260,273,283,283,278,271,270,272,279,287,295,301,297,291,283,273,263,255,255,261,268,271,268,259,253,252,256,263,272,282,292,301,309,316,324,336,353,366,375,384,396,406,412,414,418,424,430,434,434,430,431,435,443,451,459,465,469,474,478,482,486,488,490,497,505,513,523,532,542,552,562,571,579,582,581,579,576,571,566,561,553,548,545,542,539,534,530,525,522,517,511,503,496,490,486,479,472,465,455,448,441,441,443,442,440,440,441,442,441,437,430,422,416,413,410,408,407,409,414,418,418,415,413,409,404,396,389,384,380,377,371,364,358,350,341,330,322,312,301,289,277,267,257,247,238,234,234,237,242,242,235,229,221,210,203,203,204,203,200,194,181,171,168,172,178,183,187,185,181,179,178,179,180,179,182,190,197,205,211,217,220,219,216,211,205,194,186,177,163,150,139,132,125,119,115,110,103
232,220,219,224,238,247,254,257,263,270,279,289,298,309,316,325,334,341,346,354,360,362,365,366,367,365,365,365,362,359,356,347,335,322,313,304,296,284,272,258,247,237,234,245,260,272,277,276,270,264,261,264,272,280,289,293,291,284,276,269,259,252,248,254,259,261,257,250,244,249,259,268,282,294,302,310,318,324,335,347,359,373,387,398,410,418,424,425,426,431,436,441,442,440,441,446,452,459,466,472,476,479,483,489,493,496,500,504,510,518,528,538,546,556,566,576,582,586,587,585,581,575,568,563,558,551,546,540,534,529,521,515,509,507,503,498,491,484,479,473,466,461,452,442,436,435,435,433,431,431,433,435,435,429,423,415,410,404,400,397,397,398,401,406,406,405,404,403,399,394,388,381,376,370,363,355,348,342,334,327,322,314,303,292,280,269,259,248,238,231,226,229,231,232,229,223,214,203,196,193,193,194,197,194,185,172,166,163,168,174,180,180,176,170,167,168,170,170,173,178,185,193,201,206,211,212,210,203,194,185,179,171,158,143,135,127,117,110,106,101,95
225,217,213,219,229,239,248,253,261,273,282,291,301,309,317,326,333,340,347,352,356,356,354,354,353,352,353,351,351,350,350,342,330,319,309,301,291,278,263,252,241,232,229,238,252,262,270,268,261,254,250,257,267,273,277,279,275,270,265,259,254,248,245,248,252,250,246,241,244,251,258,270,282,295,305,311,318,324,336,352,365,376,389,404,416,427,433,434,436,439,444,447,449,451,452,455,459,465,472,479,485,489,493,499,503,507,510,514,519,528,537,547,558,568,574,581,587,592,594,591,586,580,574,568,564,559,553,545,537,529,520,510,504,501,497,491,484,478,471,464,458,452,441,434,429,425,424,422,419,420,423,427,425,421,417,412,405,395,391,388,387,388,390,394,395,394,394,393,391,387,384,380,373,365,355,347,341,335,329,324,319,314,306,298,286,274,265,255,245,232,226,222,223,223,220,214,204,195,188,183,183,188,190,192,183,174,165,159,161,165,170,175,170,162,157,155,159,164,168,171,177,184,191,198,203,204,203,200,190,182,175,164,154,143,132,120,108,99,96,92,88
221,214,210,219,229,238,244,251,261,273,283,290,299,310,319,326,332,339,346,351,351,347,343,338,336,336,337,339,339,343,345,342,332,321,313,304,294,279,264,251,238,228,224,229,239,250,255,255,251,245,246,250,259,264,267,264,261,257,255,252,249,244,241,241,242,243,242,246,251,256,261,266,277,290,301,309,316,324,335,350,366,381,394,406,418,430,438,444,446,449,455,460,464,464,465,467,470,475,484,494,501,504,508,511,514,516,518,522,528,537,548,557,566,574,579,585,593,597,595,590,586,583,578,572,566,562,557,550,541,533,524,515,506,501,492,484,477,469,462,455,449,439,434,428,421,415,412,409,408,409,414,417,416,415,412,407,398,389,382,378,377,377,381,384,383,382,383,384,383,381,377,372,365,357,348,340,333,328,325,320,315,310,305,300,290,282,274,265,252,242,228,221,217,213,208,201,193,186,179,174,175,178,184,186,182,177,168,160,155,154,159,163,162,157,150,148,150,156,160,164,167,173,182,191,194,196,196,195,191,185,176,165,156,143,131,118,107,98,92,89,83
220,210,208,213,225,237,243,249,257,268,278,286,295,306,315,322,329,336,342,346,345,340,331,323,320,317,317,321,328,334,339,340,334,327,318,308,296,284,271,255,241,228,222,220,227,238,243,246,243,238,236,242,248,255,255,254,249,244,243,242,242,241,237,235,237,242,249,259,262,268,270,270,275,283,293,303,313,324,336,351,365,379,395,410,422,433,443,452,457,460,466,472,476,479,481,482,485,491,498,505,511,516,519,521,523,523,524,528,534,542,553,563,571,580,584,588,593,595,592,587,584,582,576,570,566,562,556,550,543,536,527,519,508,501,491,482,473,464,455,446,438,433,428,422,413,407,403,401,401,403,404,407,407,405,403,399,392,384,377,370,366,367,370,369,369,370,374,377,378,376,371,365,358,349,341,331,323,320,319,315,310,306,302,296,289,282,273,260,251,242,232,223,215,207,198,189,182,177,171,167,166,170,173,176,179,176,169,161,152,148,149,152,152,148,144,141,143,147,151,154,156,161,171,179,186,188,187,188,189,186,179,169,159,146,135,124,115,108,101,97,91
217,208,206,210,220,231,237,243,249,257,268,278,288,299,309,319,325,332,339,345,343,335,324,313,305,298,299,305,313,320,327,335,337,334,325,311,300,290,278,263,245,233,225,219,219,223,233,238,235,230,228,229,233,236,239,240,236,233,232,232,234,234,236,240,248,257,266,275,280,283,282,280,279,284,291,302,315,327,340,355,368,381,394,409,425,436,447,456,465,470,476,484,491,494,495,497,500,504,509,514,521,526,529,532,532,531,534,538,543,551,561,570,578,585,587,588,589,588,585,583,580,577,570,565,561,557,552,546,541,532,522,515,507,498,493,485,475,467,457,446,439,433,427,419,407,400,397,395,393,393,394,398,400,398,394,390,385,379,371,363,357,356,355,355,357,360,366,370,373,370,365,358,351,343,334,324,317,315,315,312,308,302,296,290,283,275,261,252,245,236,227,219,213,204,193,182,174,168,165,162,159,160,161,167,174,173,171,162,155,147,142,141,139,138,135,133,134,137,140,142,146,152,161,171,176,176,174,178,182,184,179,171,163,150,139,133,128,123,116,109,102
215,206,203,209,219,225,230,235,242,251,262,270,281,295,307,316,321,329,337,344,340,332,322,307,292,284,285,291,300,312,322,329,336,337,326,315,303,294,284,269,255,242,231,219,212,213,218,221,222,219,217,218,220,221,225,225,226,225,227,228,229,232,239,248,257,265,275,286,293,296,294,290,289,293,304,311,319,330,345,358,368,382,398,411,425,438,449,458,468,478,486,495,503,506,509,512,515,518,520,524,531,536,540,542,541,541,546,549,555,562,569,574,580,582,583,583,581,579,577,575,572,567,562,558,554,548,543,540,534,524,519,512,505,499,495,488,481,473,460,450,441,433,425,414,402,394,387,384,383,382,384,389,394,389,386,382,378,370,364,356,348,344,342,343,346,347,351,358,364,363,360,355,349,338,328,321,314,311,309,306,301,294,287,280,272,262,252,246,238,229,220,213,206,201,191,182,175,172,168,163,157,154,154,159,163,168,170,165,158,150,142,136,131,127,124,122,123,125,127,131,136,145,157,160,162,160,160,163,169,174,175,172,167,157,149,144,140,133,124,115,106
210,199,199,207,212,219,226,232,239,250,258,266,278,291,302,310,317,325,335,339,337,328,313,297,284,275,270,274,282,294,305,316,326,328,322,310,300,290,279,266,256,243,230,218,209,206,204,208,209,209,209,210,212,214,215,217,218,225,232,233,232,236,241,251,261,271,282,294,302,307,307,304,303,309,314,320,325,334,345,356,368,381,396,410,425,440,449,458,467,478,486,496,505,512,516,521,527,531,534,537,541,546,551,554,555,553,554,555,560,564,567,570,573,575,577,576,575,573,569,566,564,560,556,549,541,535,532,530,524,519,514,511,506,505,501,494,486,475,462,451,440,430,421,412,400,388,381,377,375,376,378,381,383,383,381,377,371,364,356,347,341,333,330,330,331,333,337,343,347,351,352,352,348,339,330,322,314,305,299,296,292,285,276,268,259,250,244,238,231,224,217,210,205,198,192,188,188,184,179,170,161,154,150,150,153,158,163,164,159,150,141,132,125,119,114,109,111,114,117,120,127,136,144,148,149,147,146,149,154,161,166,169,168,168,161,158,148,138,128,118,108
206,196,191,200,209,216,225,234,241,248,255,263,273,285,295,304,311,319,329,334,330,320,308,292,278,267,258,261,266,279,290,302,313,316,311,302,291,278,265,254,246,236,225,215,206,201,200,202,204,205,207,211,215,220,221,220,225,232,237,239,239,241,246,255,267,280,292,306,317,320,321,319,316,319,324,329,335,340,347,356,366,379,393,406,422,435,446,454,463,472,481,491,500,509,517,524,530,536,542,548,552,556,559,563,562,559,555,554,555,557,560,561,563,567,568,569,569,567,564,562,559,555,549,542,532,527,523,522,518,516,517,515,514,511,507,499,487,474,462,451,438,428,419,410,399,388,380,373,371,370,371,372,373,375,375,372,365,359,351,343,337,328,320,317,318,320,326,331,334,338,342,347,346,342,333,324,314,302,294,290,283,275,267,258,249,242,237,234,231,226,221,214,212,208,204,204,203,198,187,176,168,159,153,147,146,147,152,154,149,143,135,129,123,116,109,104,103,105,109,114,119,126,132,135,136,136,133,137,144,150,156,162,167,168,166,161,152,143,133,121,110
203,192,190,196,205,214,222,229,237,245,253,260,269,280,290,298,306,317,324,325,322,315,300,288,277,262,253,250,257,269,284,294,301,305,298,288,277,263,250,241,233,225,217,207,199,196,200,203,206,210,215,221,228,234,235,237,240,245,247,247,246,247,250,258,271,286,301,314,324,331,333,332,331,330,338,345,351,352,356,360,368,379,392,410,425,434,444,455,461,468,475,484,495,505,513,521,531,538,544,548,553,557,561,561,558,553,548,546,546,548,550,550,551,552,555,559,561,562,560,560,558,554,547,540,535,529,525,521,521,522,522,522,520,511,505,496,484,473,462,450,436,426,418,409,399,388,379,370,365,361,361,361,363,365,365,361,359,352,344,339,331,320,312,306,304,306,311,317,321,325,329,334,337,334,327,320,310,302,295,287,277,267,259,250,243,239,238,238,239,240,235,234,232,228,223,221,215,202,190,180,172,164,157,149,145,145,144,143,140,135,131,126,122,116,110,103,98,97,99,103,109,114,120,124,125,123,124,128,135,141,147,154,158,160,160,158,153,145,134,124,113
199,189,188,192,200,208,215,223,231,241,249,258,269,279,289,297,305,311,318,317,311,299,288,278,264,251,242,237,245,257,270,281,288,290,285,274,263,248,237,228,220,213,206,199,196,198,202,205,215,226,230,235,243,250,253,255,258,260,261,264,263,262,262,263,269,285,303,315,326,338,342,343,341,343,352,361,364,364,362,364,371,387,406,422,433,442,451,459,463,468,473,479,491,501,510,519,528,538,545,549,552,555,557,554,549,544,540,538,537,538,539,539,539,539,543,547,549,551,554,556,556,554,549,546,542,539,534,533,531,535,533,531,524,514,503,494,483,471,462,450,434,423,415,407,397,386,375,365,355,351,350,349,349,350,350,348,346,341,336,331,324,315,305,295,289,290,295,302,309,312,316,321,324,322,319,312,306,296,288,279,270,263,251,244,239,237,238,241,248,248,251,251,250,243,237,232,221,205,190,181,173,166,161,155,150,147,143,139,136,133,132,129,125,117,111,106,100,95,93,94,96,102,108,111,113,114,116,121,126,133,140,144,149,151,152,153,150,144,133,126,117
196,186,182,185,193,203,212,222,232,239,246,257,266,278,288,297,304,311,312,308,299,288,274,262,250,237,230,226,231,244,257,268,277,279,272,263,251,239,229,219,208,201,196,196,198,203,206,216,226,238,247,253,260,267,271,276,282,286,284,283,281,277,272,268,270,280,301,318,331,344,352,353,352,355,361,369,373,372,369,371,378,394,410,427,440,450,459,466,471,474,475,481,490,501,511,519,529,538,546,550,551,549,548,544,539,534,531,527,526,526,526,527,528,527,528,532,536,540,543,545,548,547,546,545,546,545,543,538,537,538,539,535,528,515,503,493,484,474,463,449,434,422,415,405,395,383,373,360,350,343,338,335,335,335,334,333,332,329,329,325,320,313,305,293,282,280,281,288,294,297,301,310,315,312,308,302,294,286,279,271,265,257,245,237,232,230,232,237,243,250,255,257,256,251,245,236,224,209,196,187,179,174,170,166,161,155,149,144,140,141,143,141,135,126,121,116,109,102,96,91,87,91,97,101,102,103,105,111,119,128,135,138,140,142,143,143,143,139,131,125,118
196,185,178,179,189,200,211,224,235,242,251,260,268,277,285,294,302,306,306,299,290,276,261,248,234,225,218,214,225,237,248,259,269,269,264,254,243,233,223,210,199,192,193,198,204,212,220,230,242,250,257,263,270,277,287,295,301,306,307,300,292,285,280,274,274,288,306,324,340,353,363,366,367,367,374,379,381,378,377,381,390,403,419,432,444,454,466,476,483,484,484,488,496,506,513,521,530,539,544,545,541,537,532,530,526,522,518,516,514,515,517,519,518,516,515,516,519,526,529,530,533,537,540,540,541,541,538,535,534,537,537,535,529,518,507,498,489,479,467,453,438,426,417,407,394,382,371,359,346,335,324,320,318,316,314,315,316,316,318,316,312,308,302,291,280,273,270,272,276,282,291,298,302,299,296,289,282,275,269,263,255,246,236,228,223,223,224,228,234,241,247,253,255,252,245,237,226,217,209,199,192,186,183,178,171,165,161,160,160,159,158,156,150,143,135,128,120,111,103,93,86,83,86,90,92,92,96,104,112,118,123,127,129,130,131,134,134,133,129,124,117
192,184,175,176,186,199,212,223,233,243,252,260,271,280,288,296,302,303,296,288,276,263,251,237,223,213,204,209,217,228,243,253,262,260,253,245,236,227,216,203,190,190,196,204,211,222,233,240,250,258,266,272,278,289,299,305,312,317,318,313,305,296,289,284,285,299,315,329,347,366,372,376,379,380,382,387,389,388,385,388,396,410,424,438,449,462,475,486,492,495,498,501,506,511,517,524,531,537,538,534,529,524,519,515,512,509,505,502,500,501,504,507,506,502,501,501,504,510,514,515,519,523,525,529,530,530,529,529,531,532,534,533,530,521,513,500,491,482,469,454,441,428,420,411,397,381,371,358,343,330,317,306,301,296,294,295,297,299,301,302,301,299,294,283,271,259,257,259,263,271,280,288,291,291,285,278,271,266,260,252,244,236,228,220,216,213,215,217,222,228,235,242,246,246,242,237,229,223,218,213,206,202,198,192,183,175,170,169,170,171,170,170,167,157,147,138,128,119,110,98,88,82,81,80,82,84,88,96,103,107,112,115,116,117,119,123,125,124,121,118,112
186,177,171,175,185,200,212,221,231,242,250,260,270,280,290,296,298,293,284,272,264,253,239,228,217,206,200,200,208,221,235,245,248,246,239,234,229,218,207,195,189,195,204,207,216,227,234,241,250,260,268,277,285,295,305,312,318,323,323,320,314,306,298,292,295,306,321,343,367,375,381,388,389,390,391,395,398,397,395,397,406,416,428,442,455,468,478,487,495,504,508,512,515,518,521,527,532,533,530,524,518,512,507,502,499,496,493,490,488,488,491,493,492,491,490,488,491,495,498,502,505,508,510,511,515,517,519,523,525,528,529,529,525,517,506,497,489,479,466,453,440,427,419,410,393,381,371,358,343,332,315,300,291,284,281,280,281,281,283,287,289,287,281,275,263,252,246,243,251,260,268,276,280,281,273,265,261,256,248,240,233,227,221,213,206,205,207,210,213,217,223,230,236,238,236,232,226,221,217,215,213,210,205,201,194,186,182,180,180,181,185,186,181,172,162,152,141,131,123,113,100,90,84,78,75,75,79,86,92,96,101,103,104,105,107,109,111,112,111,109,105
176,169,169,176,188,199,211,221,230,241,251,261,271,281,287,289,285,280,270,261,253,242,230,220,210,200,193,193,202,214,225,232,234,231,225,219,212,206,197,190,190,195,210,221,226,231,239,246,252,259,268,277,287,298,309,317,324,328,330,327,320,313,307,305,308,316,330,348,368,382,391,397,400,401,404,406,405,405,406,409,414,422,431,440,453,463,472,482,491,500,507,513,517,521,524,525,527,524,519,514,508,500,492,487,484,482,480,478,476,476,476,476,478,479,478,476,476,479,482,484,489,494,497,499,501,505,510,515,519,523,526,524,518,508,499,492,483,473,459,449,439,429,418,406,394,383,373,359,347,333,316,297,288,279,272,269,266,265,270,274,276,274,273,270,260,248,238,235,240,250,258,264,268,264,259,252,247,243,237,230,223,219,212,204,200,198,201,203,205,209,215,221,228,229,227,222,218,214,211,211,210,208,209,206,200,194,190,191,193,197,200,199,198,188,178,168,159,147,137,129,119,107,96,87,79,75,74,77,79,83,87,90,92,94,94,96,97,99,99,100,98
167,164,168,179,192,203,215,228,238,245,254,260,272,281,284,279,274,267,260,252,242,230,218,209,199,190,180,180,191,203,213,220,222,220,215,208,201,193,190,187,188,202,217,229,236,242,246,253,259,265,272,279,288,302,315,328,335,339,339,335,330,324,319,318,326,335,346,362,378,391,401,408,411,417,421,420,420,420,421,424,428,431,435,440,447,455,465,476,483,490,497,505,511,516,519,519,517,513,508,502,495,488,481,475,471,468,466,462,462,463,462,462,462,464,464,464,466,468,471,473,478,484,489,491,493,497,503,509,516,521,522,518,512,501,492,483,474,462,451,443,437,429,419,407,397,387,377,364,353,338,320,302,290,278,268,262,253,251,257,264,265,264,262,260,254,244,235,231,233,241,247,253,254,251,246,241,237,234,230,223,217,213,206,199,194,193,194,194,197,200,204,211,216,219,218,214,210,206,203,201,199,201,204,203,201,199,201,205,209,210,211,215,212,204,194,184,175,165,154,144,135,122,112,103,93,84,77,75,73,74,76,79,79,79,81,84,85,84,88,91,91
162,160,168,180,196,208,223,238,247,254,258,266,274,277,274,269,263,255,246,239,230,218,205,196,189,180,173,173,179,189,199,203,206,208,205,201,193,189,187,188,197,209,219,233,246,252,258,264,271,277,281,287,298,312,325,337,347,350,349,345,340,336,334,337,344,352,359,369,383,396,408,418,427,434,441,440,436,435,438,440,443,445,446,447,447,451,460,469,476,481,488,497,501,506,510,510,508,504,498,491,483,476,469,462,456,451,448,448,448,450,449,448,451,451,452,455,458,460,462,466,472,475,478,480,486,492,498,507,514,518,519,515,507,496,485,475,465,453,443,439,434,429,421,411,404,393,382,369,357,344,329,312,299,283,269,259,247,242,244,250,252,250,250,249,246,240,234,224,224,229,234,238,242,242,239,234,230,229,228,221,216,211,203,195,189,186,185,186,187,189,195,199,202,205,203,201,198,194,191,189,189,190,193,195,197,200,204,209,214,217,220,223,222,217,207,197,187,177,167,157,147,137,127,117,106,97,92,87,81,78,78,74,70,70,71,73,73,73,75,78,79
158,161,170,185,199,213,227,242,254,260,263,267,270,266,261,256,249,241,233,226,221,210,199,188,181,172,166,168,173,180,184,187,189,193,195,191,189,187,187,199,212,218,226,239,254,264,271,277,283,291,299,303,310,320,329,339,350,357,361,358,356,354,356,362,370,376,380,384,393,405,415,427,437,447,451,453,453,452,453,456,459,459,461,458,455,455,458,462,467,474,482,488,493,498,503,502,496,493,488,480,473,467,460,450,442,440,440,440,440,439,437,436,435,437,441,446,450,452,455,458,462,465,467,473,480,488,494,501,511,515,518,513,505,494,483,473,462,450,440,434,429,424,418,411,404,395,385,373,361,346,332,321,305,287,272,260,246,239,237,238,237,238,239,239,237,235,227,220,217,218,222,228,236,239,236,229,224,222,220,218,212,207,200,190,183,178,176,176,177,178,182,187,188,188,188,188,187,184,181,178,178,178,181,186,190,193,197,203,208,211,215,220,224,223,216,208,197,185,177,168,157,146,138,128,118,113,109,105,99,93,88,82,76,70,69,67,65,66,67,64,66
153,159,174,192,207,221,237,247,255,261,264,265,257,250,243,239,234,229,225,221,212,202,194,184,176,166,161,162,167,172,176,178,180,182,183,181,181,187,197,207,219,227,236,249,266,280,287,294,302,312,317,319,322,326,332,345,358,369,374,373,371,372,378,385,394,400,403,405,410,418,426,436,447,456,462,466,468,468,470,472,472,473,474,473,469,465,464,465,468,473,479,486,492,495,496,493,487,481,476,470,464,458,450,442,435,431,430,428,428,428,427,424,420,420,424,434,440,445,447,449,452,455,459,465,473,482,489,495,506,515,516,511,503,493,483,472,459,449,442,434,424,417,410,403,396,388,378,368,356,346,335,326,311,294,280,264,249,241,234,228,226,225,225,227,227,226,221,214,212,213,217,224,232,237,232,225,217,210,208,205,203,199,191,184,177,170,166,164,164,166,168,170,173,175,176,179,179,177,174,171,168,167,169,172,176,178,185,192,198,203,206,211,217,220,218,213,204,195,185,176,167,156,148,141,135,129,125,121,116,109,102,94,90,86,81,75,69,65,62,59,59
152,158,176,196,208,225,240,246,252,255,256,251,241,233,227,222,216,213,212,208,202,196,189,180,171,163,160,161,164,169,172,173,176,179,178,176,179,187,198,212,222,231,243,257,271,283,293,303,311,320,329,333,334,334,340,351,366,377,382,385,385,386,391,398,407,416,419,421,424,430,437,445,455,466,472,480,484,486,488,488,489,490,490,487,483,480,475,473,474,477,482,490,493,493,490,483,476,469,463,457,451,446,441,435,428,420,416,417,419,421,419,414,410,411,416,423,431,438,440,441,443,446,450,457,466,474,483,494,503,510,513,511,505,494,483,471,460,449,441,431,416,407,400,391,384,376,366,359,350,342,337,327,313,302,288,273,260,250,240,230,223,218,216,216,216,215,212,209,207,210,215,222,231,233,229,221,209,202,194,192,192,188,183,176,168,160,153,152,153,154,153,155,158,158,161,166,168,166,163,162,160,157,158,160,164,167,171,177,183,188,194,200,206,212,215,215,211,203,194,186,179,169,160,154,148,143,140,137,131,125,117,110,104,102,98,91,85,78,71,64,57
161,174,188,199,211,223,236,243,247,246,242,236,228,221,214,204,199,198,198,197,194,188,181,172,165,164,166,165,168,172,176,180,183,185,182,178,180,185,194,205,218,229,242,255,264,277,291,302,311,320,328,334,341,343,349,358,368,375,381,387,394,401,405,411,418,426,431,434,438,443,450,457,465,473,482,491,495,498,500,503,505,505,503,499,496,490,483,479,479,483,489,493,493,488,481,474,466,458,450,445,441,437,433,425,417,409,404,405,412,415,412,404,401,403,409,415,422,427,429,428,432,436,442,451,460,471,479,490,500,507,512,512,508,499,485,475,463,452,441,426,412,403,392,381,373,362,354,348,340,334,328,319,311,303,296,288,276,266,254,241,231,223,216,213,208,206,204,202,201,205,210,217,221,224,223,216,208,196,186,182,179,177,173,167,159,150,143,142,141,141,142,142,142,144,146,150,153,152,151,149,148,146,146,149,153,157,161,167,173,176,178,184,193,200,205,209,212,206,200,193,186,179,174,168,161,158,156,152,147,139,131,124,118,114,110,106,100,91,83,73,62
164,174,190,202,211,221,230,236,238,237,231,222,213,205,197,190,184,184,186,186,182,177,171,166,163,171,171,175,178,180,183,187,191,194,196,195,192,191,193,200,213,224,234,245,258,272,285,298,307,314,321,328,333,337,340,350,361,371,376,383,395,409,419,426,431,436,445,450,454,458,463,467,472,479,485,491,495,499,504,508,511,514,513,510,505,498,491,486,486,490,494,495,488,481,473,464,456,448,442,435,430,426,421,415,406,399,393,396,401,404,401,394,392,396,399,406,411,414,413,416,419,425,434,444,455,464,476,486,497,504,508,509,509,501,490,479,469,456,444,432,418,404,388,377,364,351,344,338,329,323,316,312,309,299,293,291,284,277,267,253,244,235,225,216,208,204,198,193,193,197,201,206,210,212,211,208,201,192,182,175,171,167,162,157,150,144,139,137,135,134,134,133,133,133,133,136,139,141,141,139,136,134,134,138,142,147,153,158,161,164,166,168,175,184,190,196,201,202,201,195,192,187,184,181,177,174,172,168,161,152,145,137,131,126,121,115,109,102,94,81,68
167,180,190,200,207,215,222,229,231,229,221,213,205,192,181,173,171,171,172,172,171,168,164,163,171,181,187,189,191,192,192,195,200,205,208,208,205,200,196,199,204,213,224,238,253,265,276,288,295,303,309,316,320,321,327,338,351,359,369,381,397,413,426,436,443,450,453,457,461,465,469,471,474,478,481,484,489,497,502,506,511,517,521,519,516,510,502,497,493,495,496,492,485,476,466,457,448,441,433,426,420,414,409,402,396,389,385,386,388,389,389,385,387,388,391,396,399,400,402,405,411,417,426,441,452,462,474,484,492,498,503,507,508,503,492,481,472,461,449,439,427,412,395,381,365,352,344,334,324,315,306,305,299,291,285,282,279,273,266,259,251,243,234,226,216,206,197,189,187,189,192,196,199,199,197,194,190,184,176,169,165,160,156,153,152,150,151,146,142,140,137,134,132,126,123,122,126,130,130,128,126,123,124,128,132,134,139,145,148,151,152,156,164,173,179,184,188,189,189,189,189,189,188,187,186,189,187,183,176,169,161,153,146,139,134,129,122,113,102,91,78
159,172,183,191,199,205,212,220,226,222,218,211,198,184,170,164,160,158,161,162,165,160,161,169,182,194,200,204,209,208,207,211,213,217,221,222,219,215,209,204,200,205,214,229,246,258,267,275,281,287,293,300,305,309,313,322,332,346,364,382,400,415,427,438,448,453,455,458,461,465,467,469,473,475,477,480,488,495,501,505,511,522,528,530,527,522,515,507,503,498,494,491,484,476,465,456,446,435,427,419,410,404,397,391,385,380,376,376,379,380,380,377,378,380,382,385,387,390,393,398,405,412,425,440,451,461,472,480,488,495,501,506,508,507,498,488,477,467,457,446,434,418,402,389,375,359,347,334,324,315,305,296,288,278,272,270,267,264,259,256,251,241,232,222,213,205,198,190,184,184,184,184,185,185,184,182,179,175,168,164,162,161,162,163,164,167,168,168,163,158,154,150,142,135,128,125,125,120,118,115,113,111,112,114,117,121,125,129,135,139,141,144,152,161,169,175,177,178,177,177,179,181,182,182,184,187,191,188,182,176,170,165,158,152,145,140,133,121,109,98,88
151,164,172,181,189,194,201,211,217,218,217,209,197,183,170,159,149,152,159,163,167,168,173,184,194,203,209,215,220,222,223,224,229,234,237,236,233,229,221,214,209,206,210,222,235,247,257,263,266,271,276,281,287,296,303,311,323,341,363,383,397,410,421,431,442,450,453,456,459,462,464,468,473,476,480,484,491,500,503,508,516,526,533,533,532,525,517,512,507,501,497,491,485,477,467,460,449,436,426,416,407,398,390,382,376,370,367,368,371,375,372,366,366,369,371,373,379,384,389,395,403,413,425,437,449,459,469,478,486,495,502,508,513,513,507,498,487,478,470,458,440,422,406,391,376,360,345,333,323,314,302,292,279,269,263,260,258,256,250,248,241,231,223,216,209,205,200,198,193,186,181,178,176,176,175,173,173,174,169,166,165,170,175,176,177,180,181,182,180,174,167,161,157,151,147,143,136,126,119,117,113,110,109,108,109,109,110,112,121,126,126,131,139,149,155,160,165,166,165,165,166,168,170,173,175,179,182,182,177,173,168,165,161,156,149,145,137,125,114,103,92
149,156,163,169,178,188,196,204,210,214,214,210,199,188,175,156,150,154,163,169,173,175,180,186,194,204,211,222,230,232,234,238,242,246,250,252,250,243,233,223,216,212,213,217,225,235,245,251,255,258,265,271,275,281,292,307,322,339,362,381,395,407,417,429,439,447,452,455,458,462,467,472,478,484,488,493,500,504,508,516,523,529,533,533,528,523,515,508,504,500,496,490,484,478,471,464,456,445,431,419,409,399,389,380,372,365,361,360,365,365,361,356,357,358,361,369,375,383,390,400,408,417,428,440,448,456,467,474,482,493,504,512,517,520,517,508,497,488,479,469,447,429,409,393,377,361,347,336,325,316,307,297,284,269,261,255,251,246,240,235,230,224,218,214,211,211,211,209,205,198,187,180,177,175,174,177,179,182,181,182,184,188,192,192,193,193,193,194,191,184,177,173,169,166,163,158,150,140,135,130,124,120,114,109,103,101,100,101,103,109,113,117,125,133,142,148,152,153,153,152,152,155,158,162,165,168,171,173,170,165,160,157,154,151,148,144,137,128,118,108,100
143,149,156,163,172,181,190,197,201,203,204,203,198,191,177,163,155,154,161,168,172,174,177,182,188,196,209,221,235,242,248,256,260,264,268,268,265,254,242,232,221,213,210,212,221,230,238,247,254,260,264,268,273,281,293,307,324,347,364,379,393,407,419,430,441,449,456,460,465,473,478,482,487,491,495,501,505,509,515,522,530,532,531,527,522,515,505,500,497,493,490,485,479,475,470,462,455,446,436,424,410,399,391,385,376,368,362,356,355,355,353,351,346,348,356,369,378,386,393,402,412,420,431,440,447,458,467,474,482,494,508,516,521,523,520,511,501,491,481,468,454,436,413,396,381,369,359,349,341,333,326,316,301,284,269,258,250,243,237,232,228,222,219,217,222,221,221,218,215,206,197,190,186,185,186,191,199,198,198,200,201,204,206,208,208,206,204,204,201,195,189,187,185,179,175,172,168,160,153,147,140,133,127,117,108,103,97,95,94,96,101,108,114,122,131,138,143,142,139,138,140,143,147,151,155,157,162,164,162,156,151,147,142,141,140,138,135,129,122,113,105
138,144,151,159,167,176,181,185,188,190,191,192,192,187,176,166,158,155,157,165,169,173,175,178,184,192,202,217,234,248,259,272,281,287,289,287,280,266,254,241,229,219,214,215,222,232,243,255,267,274,279,284,294,308,318,327,336,348,363,378,395,411,423,436,448,457,463,469,476,480,482,484,488,492,497,502,509,514,520,526,528,528,526,520,514,506,498,492,486,484,482,477,473,469,464,458,449,441,431,419,406,396,390,386,380,371,362,353,349,347,348,348,346,348,358,369,378,384,394,404,412,420,429,437,447,458,467,474,483,496,506,514,521,522,518,509,501,492,481,467,455,436,417,402,390,381,372,362,356,348,337,325,313,299,288,274,264,253,246,242,237,231,231,238,237,237,235,232,223,213,203,197,195,197,199,210,212,212,212,214,215,216,218,220,221,219,219,216,213,208,204,202,196,190,189,188,187,182,175,164,156,149,143,137,130,118,109,103,99,95,95,98,103,110,119,128,130,129,126,125,129,133,135,138,141,146,150,155,154,150,144,136,131,128,129,132,132,129,126,119,112
133,140,145,149,156,164,173,176,178,180,180,180,183,178,172,165,158,154,156,163,169,176,182,186,191,194,199,216,232,246,262,279,295,305,309,303,293,281,268,254,241,233,227,226,226,234,246,257,266,276,285,294,308,323,335,344,352,363,379,393,406,419,429,443,458,462,466,472,474,475,475,478,483,487,492,499,505,512,518,520,522,523,520,513,506,498,489,481,477,474,471,466,463,460,457,451,441,431,421,409,398,391,386,384,379,371,361,352,344,341,340,341,341,345,356,367,375,383,391,403,410,417,426,434,443,454,463,472,481,491,502,510,515,517,514,506,497,490,480,467,454,438,422,411,401,392,385,380,373,364,351,337,323,310,301,288,279,268,262,257,252,250,254,259,258,253,250,244,232,218,210,204,204,207,213,221,226,228,227,226,225,226,227,230,232,233,232,232,229,226,226,228,218,210,207,207,205,203,195,184,175,169,162,157,148,138,131,124,114,104,96,90,92,99,110,118,119,117,115,113,116,124,126,129,130,131,135,141,144,142,136,130,124,119,120,124,124,125,121,117,111
125,130,134,136,139,149,158,162,165,166,167,170,172,172,169,162,153,153,157,164,173,184,195,201,204,203,206,217,231,245,263,286,301,312,314,309,303,292,281,268,257,248,241,236,232,233,242,253,264,273,285,298,313,330,348,362,374,385,397,408,417,425,435,450,458,462,465,466,466,464,463,466,473,480,487,494,499,503,507,512,515,515,512,506,497,487,477,471,466,461,456,453,453,451,447,441,431,422,411,400,389,382,380,379,376,369,360,349,340,333,330,329,331,341,352,363,372,379,388,398,406,412,420,430,439,448,456,464,474,484,497,506,509,508,504,497,491,484,475,467,457,447,434,423,414,405,401,394,389,382,368,353,341,328,318,306,293,283,277,273,272,273,277,278,275,266,260,248,236,224,217,215,214,218,224,234,241,243,242,238,235,235,238,242,245,246,246,247,248,247,247,246,240,235,228,224,219,213,209,202,195,186,178,170,160,151,142,135,125,113,103,91,88,89,98,106,111,109,106,103,105,109,116,118,120,122,125,129,135,133,130,126,119,114,112,113,116,117,115,110,106
118,122,127,130,131,134,141,147,149,151,153,154,157,162,161,154,148,148,154,161,171,185,199,210,213,212,213,220,233,248,266,283,296,307,314,314,309,301,292,284,275,266,257,248,242,239,243,251,261,271,285,299,315,335,354,370,384,396,406,414,423,431,442,450,454,455,457,458,456,454,453,456,463,472,476,482,488,493,497,504,507,508,504,498,488,479,469,459,450,445,443,442,441,438,434,429,420,412,401,390,380,371,368,370,369,364,356,347,335,327,321,320,326,336,349,359,368,376,384,394,401,407,415,426,436,445,452,458,466,477,487,497,497,495,491,486,479,472,465,460,456,452,446,440,432,424,416,411,403,393,379,367,358,348,334,322,312,302,296,291,289,290,293,292,285,274,262,251,240,230,225,226,228,233,243,251,258,258,256,254,253,253,255,257,257,259,262,264,265,264,265,261,256,250,245,240,233,228,221,214,205,197,190,181,170,160,152,145,136,125,112,100,90,86,84,90,98,99,96,95,95,97,100,104,107,109,113,119,123,124,123,119,115,109,103,103,107,109,109,104,99
118,123,128,130,129,128,131,134,137,139,140,141,147,154,156,153,148,146,152,160,172,188,203,216,220,221,223,228,239,251,263,274,289,300,311,318,316,310,304,295,288,282,275,269,264,261,258,255,258,266,281,298,320,339,354,368,384,399,410,420,425,433,440,446,447,448,449,448,447,446,445,449,456,461,466,471,477,483,488,494,499,501,497,492,484,472,459,449,439,434,431,428,427,425,424,419,412,405,395,383,371,362,358,356,356,353,347,338,330,321,315,317,325,339,351,360,366,374,382,390,397,403,412,422,434,441,447,452,462,471,478,484,486,484,479,474,467,462,457,452,448,447,446,442,439,434,428,423,415,405,394,382,372,360,349,339,330,321,315,313,309,311,310,306,296,280,266,255,245,237,236,240,244,250,258,267,273,277,276,277,276,275,275,274,277,279,281,282,284,280,276,270,266,260,254,248,242,233,225,217,209,201,194,184,175,167,162,157,150,138,126,113,100,92,84,83,81,83,85,85,84,86,88,91,93,97,102,107,112,112,111,109,106,100,96,96,98,101,100,97,94
135,134,138,136,134,131,129,128,132,134,136,138,142,146,150,152,150,148,148,155,173,193,206,218,228,231,234,238,241,248,259,271,283,295,308,318,321,319,314,307,300,294,290,287,285,281,275,268,263,265,278,297,315,333,349,365,379,391,402,411,420,427,433,436,438,439,438,436,434,435,438,442,448,453,457,462,468,473,477,482,488,490,492,488,477,464,454,442,433,427,421,416,412,411,411,406,403,397,389,376,363,352,342,339,337,336,332,326,319,313,311,314,325,339,353,361,369,375,382,388,394,400,410,422,430,436,441,448,455,463,472,477,476,474,470,462,456,452,448,444,440,440,440,440,439,437,436,430,424,416,407,397,389,380,368,358,348,339,333,329,327,325,322,316,305,288,272,260,252,248,250,253,260,267,275,284,290,294,297,298,297,295,295,295,296,295,292,290,287,284,278,273,267,259,253,247,238,230,221,213,207,200,190,183,177,173,168,162,155,145,134,123,113,103,92,82,77,77,77,77,76,76,78,80,81,84,87,91,95,97,96,93,92,90,88,88,90,93,94,92,89
155,153,152,149,146,142,138,139,139,141,141,141,140,140,143,145,145,144,145,153,166,187,204,218,231,240,246,247,247,251,260,271,283,293,305,318,326,327,326,321,313,308,303,300,295,291,287,280,273,272,279,292,306,325,343,358,372,380,386,396,407,416,421,424,427,426,423,420,422,425,430,435,440,443,447,453,459,464,468,475,483,487,485,479,469,459,449,439,428,421,414,405,398,397,395,393,391,389,384,373,357,345,333,327,323,321,316,312,308,304,304,314,327,342,351,359,367,375,381,385,390,396,406,417,426,432,439,444,449,456,463,468,469,465,458,452,446,442,437,433,432,432,432,431,432,433,433,432,430,425,420,413,408,400,387,376,368,361,354,346,341,335,331,321,308,291,278,269,264,261,264,271,278,284,292,299,305,310,313,313,312,309,307,304,301,297,292,288,283,278,273,267,259,253,246,238,229,221,213,207,200,192,183,176,172,167,160,154,147,140,130,121,112,104,94,86,80,77,74,73,71,70,70,71,71,69,71,72,75,80,80,79,77,77,78,79,83,85,86,86,84
173,169,166,164,159,157,158,157,154,150,149,148,147,143,140,141,144,146,150,157,168,182,197,216,233,246,255,260,263,265,269,279,281,289,303,319,329,335,335,331,325,322,320,317,314,310,304,296,287,284,286,293,305,321,337,352,363,372,380,388,398,404,410,414,413,411,408,408,410,415,420,424,426,431,437,445,451,457,464,470,478,482,480,470,462,454,444,432,423,416,407,397,389,386,383,380,380,380,376,366,355,342,332,324,319,312,305,301,298,298,306,318,332,342,350,357,364,370,376,381,386,392,401,410,420,429,434,438,445,453,461,464,462,455,449,444,440,433,427,424,422,420,419,420,422,424,426,427,427,426,422,420,416,410,402,391,383,375,367,356,348,340,331,319,306,294,285,280,278,276,279,284,289,297,304,310,317,323,325,323,319,315,310,306,301,295,289,284,278,272,267,259,252,244,237,229,219,212,204,197,189,181,175,169,163,157,151,145,138,129,121,114,108,101,94,89,87,87,87,85,84,82,79,78,74,69,67,65,66,67,68,68,67,68,69,71,74,74,78,79,78
191,184,180,175,171,170,170,168,165,159,157,156,154,150,147,147,151,156,161,167,174,183,195,214,231,245,257,266,278,286,289,288,289,294,306,318,329,338,343,342,340,337,333,332,331,325,318,309,304,300,300,303,310,321,332,343,353,362,371,381,389,394,400,401,398,394,394,396,400,404,409,414,418,422,428,436,443,451,458,467,474,477,473,465,456,449,436,424,414,408,400,391,383,376,370,366,365,365,363,360,354,346,336,327,317,307,299,294,292,300,311,322,331,339,346,353,360,366,372,378,382,385,394,405,413,421,428,433,440,450,457,460,455,445,439,436,431,423,418,415,413,410,409,409,413,416,417,419,419,418,417,416,415,412,406,401,391,381,370,360,349,339,329,319,307,299,295,294,293,292,294,298,304,311,316,322,329,334,334,328,321,316,310,305,298,292,286,280,273,265,260,252,244,236,228,220,210,202,196,187,178,171,167,160,153,145,140,135,127,120,115,109,104,101,100,98,98,99,101,100,99,97,94,90,85,80,75,72,67,65,68,66,67,68,66,65,65,65,68,70,69
205,196,190,186,184,183,183,179,172,168,165,167,165,161,159,159,165,169,173,179,186,189,198,210,225,237,251,264,278,291,296,300,304,312,319,326,334,345,352,356,355,353,351,350,346,341,333,326,322,318,316,317,325,328,334,340,345,350,357,365,375,382,384,385,381,380,383,388,392,396,400,405,411,418,424,431,439,447,456,466,471,472,468,460,452,440,428,416,408,401,393,382,371,361,356,352,349,349,351,353,349,345,336,328,318,305,294,287,291,300,312,318,326,335,341,347,356,363,369,376,380,383,390,398,407,415,423,431,437,446,453,453,446,436,429,424,419,413,408,405,402,400,398,401,403,407,408,409,407,408,408,408,409,407,404,400,394,385,376,363,350,339,329,321,314,310,309,307,308,309,313,317,323,328,332,337,341,345,340,330,321,314,309,302,296,290,284,278,270,261,252,244,237,228,220,212,202,193,185,179,171,164,158,149,142,134,129,126,121,119,114,111,111,115,118,114,111,110,106,105,103,100,98,95,92,88,85,85,83,83,83,81,81,78,73,67,61,60,60,61,61
214,205,200,198,198,198,195,190,182,174,171,171,172,169,166,169,175,182,188,196,201,207,211,217,226,236,248,259,270,284,296,305,315,324,329,336,346,355,363,369,372,374,372,366,362,357,352,346,341,339,339,339,340,341,340,340,343,346,349,354,361,367,371,373,373,373,377,382,388,390,394,400,409,416,422,431,438,445,454,463,468,467,463,457,447,436,423,413,403,394,382,371,361,352,345,339,335,335,337,340,341,336,328,320,310,300,289,281,283,294,304,311,320,328,335,342,352,360,366,373,378,383,390,398,404,411,417,423,431,440,445,443,436,425,418,414,406,401,398,394,392,389,386,387,391,393,394,396,397,397,396,398,399,399,399,396,394,390,383,367,354,344,338,332,328,327,326,325,325,328,335,339,341,343,347,350,351,348,344,334,322,314,306,301,297,291,285,279,268,255,244,235,226,219,214,207,196,187,179,173,166,157,147,141,136,134,131,134,135,134,135,136,137,138,134,131,127,120,113,106,104,103,101,97,93,89,90,91,92,93,96,95,93,89,83,75,68,63,58,55,54
218,211,210,212,214,213,208,201,194,186,180,178,178,176,171,173,183,194,204,216,221,224,229,232,234,241,247,253,262,274,290,303,315,327,336,347,357,366,375,383,389,393,392,387,379,373,369,367,363,360,356,357,357,356,354,353,353,352,351,353,355,361,366,369,371,371,377,384,387,390,396,404,412,420,427,435,443,450,458,464,467,466,461,452,443,435,422,409,396,385,373,362,351,342,331,325,321,322,325,330,331,325,316,309,302,295,284,276,276,288,299,307,315,323,329,338,346,355,360,365,373,380,387,393,400,406,412,416,421,428,433,432,428,419,412,404,396,391,387,385,380,376,374,373,374,377,380,383,385,386,387,388,390,391,390,391,393,392,385,375,365,360,353,349,349,349,349,348,346,351,353,354,355,358,359,359,356,352,347,338,324,312,304,299,295,289,284,277,263,250,238,226,216,212,208,201,194,185,177,168,158,149,145,143,145,144,145,146,149,154,159,161,160,157,150,142,136,130,122,117,114,113,108,102,96,92,91,90,91,94,97,99,98,94,88,80,74,67,60,53,50
225,220,220,225,228,225,217,211,204,198,193,189,188,187,185,191,199,209,221,230,235,238,242,247,250,253,257,259,262,273,286,300,313,326,337,351,364,375,387,397,406,409,410,405,399,391,386,384,382,378,375,374,375,372,370,371,370,365,361,363,365,365,368,372,374,380,387,393,397,400,405,412,419,426,433,441,448,454,459,466,471,470,461,451,440,429,416,404,391,378,365,355,342,330,320,314,308,308,312,316,318,313,306,298,292,285,277,270,273,282,292,303,311,316,323,332,340,346,351,359,368,376,381,388,396,403,409,411,415,421,426,426,424,418,407,398,391,388,384,378,373,367,361,361,363,365,367,369,372,375,377,379,382,384,385,386,389,390,387,384,378,373,369,367,366,368,367,364,364,363,363,364,365,365,365,363,358,353,346,333,320,310,303,298,292,286,280,273,263,250,238,222,213,207,203,196,188,180,171,163,153,147,148,152,157,163,162,163,165,174,178,177,174,169,163,154,146,140,134,129,126,122,117,112,106,97,93,88,88,89,92,93,92,90,84,77,71,66,60,55,51
236,234,237,239,241,235,227,221,214,207,204,201,200,199,199,202,208,221,234,244,252,257,262,265,267,269,271,273,276,280,289,299,310,322,334,349,365,378,391,400,408,413,412,410,405,398,393,391,390,390,390,390,389,387,388,387,385,382,380,378,376,376,379,380,385,391,398,404,406,410,415,419,426,432,441,447,453,455,462,473,480,476,465,452,438,425,416,404,392,377,364,351,336,323,315,305,298,294,296,302,304,302,296,289,282,276,268,265,268,277,286,296,305,311,318,326,332,339,347,356,364,369,376,385,390,396,402,406,409,416,420,423,421,413,403,394,389,384,378,373,365,355,350,347,348,350,353,357,361,364,366,367,370,375,378,380,385,390,391,393,390,386,388,388,385,383,381,378,375,375,374,373,372,371,369,365,359,352,342,330,318,308,301,297,291,283,275,267,259,248,235,222,209,202,196,189,180,171,165,158,152,152,156,163,168,172,176,178,186,194,199,197,192,186,178,169,161,152,146,141,137,133,130,126,118,110,100,93,88,86,86,85,83,79,74,69,65,63,60,56,54
247,247,249,251,249,243,236,228,222,216,212,213,212,211,210,210,215,226,242,256,268,277,281,284,286,286,285,285,288,292,297,305,314,323,335,351,364,377,389,399,407,408,406,404,399,395,391,390,390,391,392,394,394,397,397,396,395,395,392,390,388,387,388,390,395,401,406,410,413,415,420,428,435,441,448,454,459,463,470,478,480,477,463,450,439,427,415,406,394,380,367,354,337,323,314,304,293,284,284,288,292,294,291,283,275,265,259,257,263,270,278,290,299,306,314,323,332,340,346,353,358,364,372,379,384,387,392,397,402,410,416,419,417,412,402,394,387,379,372,364,356,348,341,335,334,337,342,347,350,352,355,356,359,363,369,374,380,387,394,398,398,398,398,399,398,397,394,390,386,384,384,383,379,375,368,361,353,345,337,326,317,308,298,292,285,277,267,258,251,241,228,216,207,199,192,184,175,168,161,161,161,164,168,174,181,190,197,199,204,212,213,211,206,200,195,186,176,169,161,154,147,145,143,139,131,121,110,103,95,88,84,81,77,71,68,65,62,60,58,56,54
256,255,256,258,258,254,247,240,233,227,226,227,227,226,223,220,222,231,246,260,274,285,291,295,297,299,299,300,302,305,310,318,325,332,343,355,368,380,394,405,406,402,398,392,389,386,384,382,382,382,384,386,388,390,390,390,391,392,392,391,389,389,392,396,400,405,410,413,416,420,427,434,439,444,451,457,462,466,469,472,472,466,459,451,441,430,418,408,398,384,368,355,341,329,319,306,295,283,275,276,280,282,281,276,264,257,252,253,258,265,276,286,296,303,311,321,329,337,346,352,356,360,366,371,372,376,379,383,392,401,408,413,416,411,404,396,387,376,367,361,354,345,335,329,326,328,333,338,341,343,345,348,352,357,360,367,375,382,387,393,396,397,400,403,405,405,403,399,396,393,388,385,379,373,364,355,347,339,330,321,313,304,295,288,281,271,261,251,242,232,222,212,204,197,189,184,179,172,170,174,179,179,179,186,197,208,217,220,222,223,222,218,213,208,204,198,192,181,170,163,159,156,152,147,138,128,118,110,102,92,87,82,77,72,68,65,62,59,56,54,53
269,269,268,267,267,264,258,253,245,241,238,241,241,236,231,230,230,237,250,264,277,289,296,301,308,313,316,318,319,322,328,334,338,345,356,366,374,385,396,403,401,396,390,384,380,376,374,373,373,373,372,375,377,378,380,381,383,384,384,382,384,386,390,394,399,405,410,414,419,426,433,438,442,446,449,455,459,460,459,460,458,455,451,445,440,431,419,411,401,385,370,359,346,334,322,311,297,282,269,265,263,265,268,262,257,251,248,250,254,264,274,287,296,304,311,318,325,331,338,345,351,354,357,357,358,362,366,370,375,386,398,406,410,407,402,395,386,375,366,360,351,340,330,324,319,318,322,326,330,333,336,340,344,349,353,358,365,372,377,381,383,389,395,400,404,407,408,404,400,394,388,382,376,369,360,351,343,334,325,315,308,300,292,284,276,268,257,246,236,228,222,211,204,198,195,192,189,184,187,193,196,195,194,200,211,219,229,231,228,224,220,215,210,204,201,200,195,188,180,176,171,166,159,150,140,131,124,112,101,94,89,83,78,73,70,67,64,59,56,53,51
284,283,281,279,276,273,271,265,260,255,255,256,254,251,245,242,240,245,255,266,278,290,303,311,319,325,327,330,332,333,339,345,349,357,368,377,384,391,397,398,394,388,382,377,371,369,368,366,364,361,360,363,366,369,371,372,372,373,372,373,375,380,384,388,391,397,405,410,419,427,433,437,440,443,448,451,451,450,447,444,444,442,440,436,434,427,417,407,397,384,371,361,350,335,327,315,303,287,272,258,253,255,254,252,249,246,246,248,254,266,281,292,299,304,311,318,323,327,332,338,342,345,346,347,348,350,352,358,366,376,388,399,403,401,398,392,385,377,368,357,347,334,325,316,310,309,313,318,322,325,328,331,337,344,348,352,358,363,367,371,375,380,387,392,397,401,402,402,399,393,387,381,376,369,360,351,341,333,322,312,305,298,288,279,270,261,253,243,237,234,230,224,219,213,211,209,209,209,207,210,213,213,215,222,226,232,234,231,225,219,213,207,199,195,193,192,192,191,187,183,175,169,162,151,140,132,123,113,102,94,88,82,77,73,71,69,65,59,56,52,50
297,294,292,290,288,285,282,278,276,274,273,272,268,264,260,257,254,256,260,269,280,295,309,320,329,337,340,341,341,343,349,355,361,368,378,387,391,394,394,392,386,379,373,368,363,361,360,358,356,353,351,354,357,359,359,360,361,361,363,365,369,372,376,379,382,387,396,404,412,421,428,433,438,441,444,443,441,435,430,429,430,429,429,429,425,421,413,402,391,379,366,357,346,334,325,315,303,291,276,260,252,244,240,240,239,242,248,254,264,276,286,293,297,303,308,313,317,320,324,329,333,335,335,335,336,337,340,347,357,368,381,392,396,396,394,390,383,379,370,361,346,329,317,309,301,302,306,309,313,317,320,325,332,337,341,345,349,352,357,361,366,371,376,382,388,392,396,399,395,390,386,382,377,369,363,355,345,334,323,314,305,294,284,276,267,258,253,249,245,243,241,238,234,232,226,223,223,223,222,224,230,231,234,237,237,237,235,228,218,209,199,192,188,185,184,184,184,185,182,176,171,164,157,149,137,129,120,111,102,95,88,80,75,72,70,68,64,59,55,52,50
310,305,303,302,301,300,297,295,293,290,289,286,281,275,270,267,265,267,271,277,288,300,312,325,335,344,348,348,351,355,362,368,375,382,388,393,393,392,390,385,378,370,365,360,356,355,354,352,348,345,343,345,347,348,347,347,349,354,357,362,365,368,370,373,375,382,390,397,405,413,421,426,430,435,434,431,427,421,418,417,417,417,418,418,418,415,407,398,387,373,361,353,343,332,322,312,301,291,277,263,249,236,231,228,231,237,250,262,269,275,283,289,294,299,304,308,310,311,314,317,319,320,320,319,323,328,332,337,347,358,371,384,390,393,391,387,381,375,369,360,344,326,311,299,294,293,295,300,305,309,313,319,323,327,330,333,337,340,344,348,354,362,369,375,382,387,391,393,391,387,384,380,375,368,362,356,346,336,326,317,307,298,288,282,274,269,265,262,260,260,256,252,250,247,244,242,240,237,237,242,245,246,246,246,245,241,233,221,211,201,190,183,180,177,175,172,173,172,171,167,162,157,150,143,133,125,117,110,103,94,87,81,75,71,68,66,62,58,54,51,49
322,318,315,313,312,313,311,309,307,307,305,301,295,288,286,283,282,284,289,295,303,311,319,328,339,347,353,360,366,369,374,380,384,385,389,389,389,387,383,376,368,363,357,350,348,347,346,344,339,335,334,335,336,337,336,337,338,342,351,356,359,361,365,368,371,376,383,391,398,405,411,417,420,420,421,420,415,410,407,405,404,405,406,406,406,404,399,395,386,374,362,351,339,327,318,308,297,286,274,262,248,237,226,221,223,231,246,261,266,271,277,282,288,294,300,303,304,305,307,307,306,304,304,306,310,317,325,333,341,353,367,378,385,389,388,385,378,371,363,353,342,327,312,300,290,287,287,290,296,301,306,310,315,318,319,320,323,328,333,338,345,353,362,369,375,380,384,386,386,384,380,376,371,363,358,353,348,339,331,325,318,310,303,297,290,283,280,280,279,277,275,271,267,263,262,260,256,253,257,258,259,257,255,251,246,239,229,218,209,199,190,183,178,172,166,163,162,162,161,157,153,146,141,136,129,123,118,111,103,94,87,82,77,72,67,64,61,57,52,49,47
330,327,326,325,327,327,325,326,325,326,322,319,314,307,300,298,299,303,307,312,320,326,330,336,343,350,358,366,372,378,382,382,382,383,382,381,380,377,372,365,361,356,349,344,340,337,336,334,330,326,324,325,325,326,326,326,329,336,343,348,351,354,358,361,365,370,376,383,392,398,404,409,409,407,407,406,403,398,396,393,391,391,392,391,392,392,393,390,385,373,361,349,339,328,316,302,290,277,265,255,248,237,227,220,217,223,236,249,261,266,270,275,280,284,289,293,295,296,298,297,293,291,294,299,304,312,323,333,341,349,360,371,380,384,386,382,375,365,355,346,335,324,313,304,293,286,281,282,286,294,298,301,303,306,309,310,314,319,324,330,337,347,355,362,368,373,377,379,380,377,374,369,363,357,352,349,345,339,334,330,326,321,316,311,307,301,297,298,298,297,296,292,286,278,271,269,266,268,268,269,267,262,257,252,243,236,226,215,206,198,193,187,181,173,166,158,153,152,149,146,141,136,130,127,124,120,116,109,100,93,87,81,76,71,66,63,60,54,49,47,45
341,340,339,340,340,340,341,339,337,334,331,328,326,321,315,314,315,318,321,326,333,338,340,344,351,358,365,372,377,379,379,378,376,374,374,372,368,364,360,356,353,348,340,334,330,326,323,322,320,316,315,315,316,313,311,313,320,327,334,338,341,345,351,355,358,364,370,377,384,391,397,397,396,394,392,392,390,385,383,381,380,380,379,378,380,383,384,383,375,366,358,349,339,329,315,300,287,273,261,254,246,236,224,216,211,215,228,242,251,258,264,268,270,273,277,280,283,284,284,283,282,283,287,295,304,312,323,333,342,349,357,368,378,383,384,381,371,360,349,339,328,318,310,303,294,285,279,276,278,286,291,291,291,292,295,301,306,313,319,324,331,337,345,352,358,365,368,370,370,370,366,360,357,352,345,340,337,333,328,326,323,321,318,315,315,313,312,314,313,313,307,300,291,281,272,267,266,266,267,268,265,261,255,249,239,230,221,214,206,197,190,185,177,170,162,153,146,141,139,135,130,125,122,119,116,112,108,105,99,92,86,80,75,71,66,62,58,54,49,47,45
348,347,347,347,349,351,350,348,343,339,335,334,335,333,329,328,326,329,333,338,344,347,350,355,359,365,373,377,377,374,371,369,366,364,362,359,357,352,348,344,341,335,330,323,319,315,312,311,310,308,306,306,305,304,301,302,306,317,324,329,334,339,343,349,353,358,365,372,378,384,386,384,382,380,379,377,374,371,371,371,372,369,368,370,373,374,374,370,364,357,352,344,336,326,315,304,293,281,270,259,247,234,224,216,207,205,212,228,241,249,254,256,258,261,264,268,271,273,271,269,270,275,285,293,301,312,322,331,341,349,355,367,377,383,384,381,372,359,347,336,325,315,305,297,289,283,277,269,268,273,277,278,278,281,285,291,299,307,314,319,324,330,334,341,347,354,358,360,362,361,358,354,350,344,336,331,329,325,320,317,314,312,311,310,311,312,311,310,311,312,308,300,290,278,269,262,259,257,258,259,257,253,246,238,230,223,215,207,199,191,184,179,171,162,154,147,140,136,133,129,122,117,114,113,110,106,102,99,95,90,84,77,73,69,64,60,56,52,49,46,44
349,352,355,358,362,364,364,362,357,350,346,346,346,344,341,337,336,337,342,346,351,357,361,365,368,373,377,377,373,368,363,359,355,352,351,351,350,347,342,339,334,328,322,317,314,311,307,305,302,300,300,297,295,293,291,292,298,308,315,320,325,331,336,341,347,351,358,366,372,377,378,374,370,367,363,361,360,360,361,362,361,359,358,361,364,367,364,358,353,350,345,340,335,326,317,307,296,286,273,261,248,237,228,220,209,197,199,210,226,238,243,245,246,247,250,252,256,261,261,261,263,274,283,292,300,310,319,328,339,349,356,364,376,383,385,381,372,362,349,336,324,313,303,292,289,284,278,266,262,262,265,267,269,274,280,286,293,300,306,311,315,320,324,330,337,343,347,351,351,352,351,347,341,334,327,323,318,313,311,309,306,301,300,301,303,303,302,300,301,302,300,295,287,279,269,259,253,248,246,246,246,241,235,229,221,213,205,197,190,182,177,170,163,155,148,141,136,132,129,124,117,112,110,108,106,102,97,94,91,87,82,77,71,66,62,58,54,50,47,44,44
345,353,359,367,371,373,374,375,371,363,359,357,355,352,347,345,345,346,349,353,359,365,370,375,378,379,379,374,369,363,357,352,348,345,344,344,343,340,338,335,329,324,320,316,311,306,300,295,292,290,287,285,282,281,281,282,290,299,308,313,319,325,328,332,338,346,352,358,364,367,367,365,361,355,352,350,351,351,352,354,352,350,349,351,357,359,356,351,346,341,337,334,329,322,313,304,293,284,272,260,249,238,232,225,214,203,199,203,217,228,232,233,235,237,237,239,245,248,248,249,255,265,279,290,300,310,319,329,341,350,358,367,377,385,387,384,375,364,353,341,327,317,311,305,299,293,283,271,263,258,258,259,262,267,271,277,285,291,296,301,307,312,315,319,325,331,336,340,342,343,343,339,332,326,320,313,306,303,300,297,292,289,288,289,291,291,287,288,289,289,289,285,282,277,268,260,250,242,236,233,231,229,226,220,211,203,194,187,179,173,168,163,158,153,147,141,135,131,127,122,116,110,106,104,101,98,94,90,87,84,80,75,69,63,59,57,54,50,46,45,45
