0.5747 0.5770 0.5770 0.5747 0.5678 0.5632 0.5563 0.5494 0.5425 0.5425 0.5425 0.5448 0.5448 0.5494 0.5517 0.5586 0.5609 0.5609 0.5632 0.5586 0.5609 0.5632 0.5701 0.5701 0.5724 0.5747 0.5793 0.5816 0.5816 0.5770 0.5701 0.5678 0.5724 0.5770 0.5793 0.5816 0.5816 0.5770 0.5701 0.5678 0.5655 0.5655 0.5655 0.5586 0.5517 0.5494 0.5494 0.5448 0.5402 0.5356 0.5310 0.5310 0.5310 0.5333 0.5379 0.5379 0.5310 0.5264 0.5241 0.5264 0.5333 0.5379 0.5425 0.5448 0.5425 0.5379 0.5356 0.5310 0.5264 0.5264 0.5264 0.5241 0.5241 0.5287 0.5333 0.5402 0.5448 0.5448 0.5448 0.5402 0.5402 0.5448 0.5471 0.5402 0.5356 0.5379 0.5448 0.5448 0.5425 0.5379 0.5310 0.5287 0.5218 0.5218 0.5287 0.5356 0.5471 0.5563 0.5632 0.5770 0.5885 0.5931 0.6000 0.6046 0.6092 0.6069 0.6000 0.5839 0.5701 0.5609 0.5609 0.5609 0.5609 0.5563 0.5494 0.5448 0.5333 0.5218 0.5172 0.5080 0.5011 0.4966 0.4897 0.4851 0.4805 0.4782 0.4759 0.4759 0.4736 0.4713 0.4736 0.4736 0.4713 0.4713 0.4690 0.4667 0.4667 0.4644 0.4621 0.4621 0.4644 0.4690 0.4713 0.4690 0.4667 0.4690 0.4713 0.4736 0.4805 0.4851 0.4943 0.4966 0.5011 0.4989 0.5057 0.5126 0.5172 0.5195 0.5172 0.5149 0.5126 0.5149 0.5172 0.5195 0.5218 0.5241 0.5264 0.5287 0.5310 0.5356 0.5379 0.5402 0.5425 0.5471 0.5517 0.5540 0.5563 0.5609 0.5632 0.5678 0.5678 0.5701 0.5724 0.5747 0.5747 0.5770 0.5839 0.5885 0.5977 0.6000 0.6023 0.6046 0.6115 0.6184 0.6230 0.6253 0.6299 0.6299 0.6322 0.6322 0.6322 0.6368 0.6368 0.6391 0.6414 0.6414 0.6391 0.6368 0.6299 0.6207 0.6184 0.6161 0.6138 0.6069 0.6023 0.5954 0.5885 0.5862 0.5885 0.5908 0.5908 0.5839 0.5793 0.5816 0.5793 0.5724 0.5678 0.5655 0.5655 0.5724 0.5839 0.5931 0.6000 0.6046 0.6115 0.6138 0.6161 0.6161 0.6138 0.6115 0.6092
0.5793 0.5816 0.5793 0.5724 0.5655 0.5609 0.5586 0.5517 0.5471 0.5448 0.5448 0.5448 0.5448 0.5448 0.5494 0.5540 0.5586 0.5609 0.5609 0.5586 0.5540 0.5609 0.5678 0.5747 0.5793 0.5839 0.5885 0.5908 0.5862 0.5793 0.5747 0.5747 0.5747 0.5770 0.5793 0.5793 0.5816 0.5793 0.5770 0.5724 0.5724 0.5701 0.5701 0.5609 0.5540 0.5517 0.5494 0.5402 0.5333 0.5287 0.5310 0.5333 0.5333 0.5356 0.5402 0.5425 0.5402 0.5356 0.5333 0.5402 0.5448 0.5471 0.5471 0.5494 0.5471 0.5425 0.5379 0.5333 0.5310 0.5333 0.5333 0.5287 0.5287 0.5287 0.5379 0.5425 0.5471 0.5471 0.5471 0.5471 0.5471 0.5563 0.5586 0.5517 0.5448 0.5425 0.5471 0.5517 0.5471 0.5402 0.5310 0.5218 0.5218 0.5218 0.5287 0.5356 0.5471 0.5540 0.5632 0.5701 0.5793 0.5931 0.6000 0.6023 0.5954 0.5885 0.5839 0.5747 0.5609 0.5540 0.5540 0.5540 0.5540 0.5517 0.5471 0.5402 0.5333 0.5218 0.5172 0.5126 0.5057 0.4989 0.4943 0.4897 0.4828 0.4782 0.4736 0.4759 0.4782 0.4805 0.4851 0.4874 0.4828 0.4759 0.4690 0.4667 0.4644 0.4644 0.4644 0.4621 0.4621 0.4667 0.4690 0.4713 0.4690 0.4690 0.4690 0.4713 0.4736 0.4782 0.4874 0.4943 0.4943 0.4920 0.4943 0.5034 0.5103 0.5126 0.5126 0.5103 0.5103 0.5103 0.5149 0.5172 0.5149 0.5172 0.5172 0.5218 0.5287 0.5333 0.5379 0.5402 0.5425 0.5425 0.5448 0.5494 0.5540 0.5609 0.5678 0.5724 0.5724 0.5701 0.5701 0.5770 0.5816 0.5839 0.5839 0.5862 0.5908 0.5977 0.6000 0.6069 0.6115 0.6161 0.6184 0.6207 0.6207 0.6253 0.6253 0.6253 0.6299 0.6345 0.6368 0.6414 0.6437 0.6483 0.6483 0.6460 0.6391 0.6345 0.6322 0.6253 0.6253 0.6161 0.6069 0.6000 0.5977 0.5977 0.6023 0.6046 0.6023 0.5954 0.5908 0.5862 0.5816 0.5747 0.5724 0.5724 0.5678 0.5655 0.5724 0.5793 0.5839 0.5885 0.5954 0.5954 0.5954 0.5977 0.6000 0.6000 0.5977
0.5862 0.5862 0.5816 0.5724 0.5609 0.5586 0.5540 0.5517 0.5471 0.5471 0.5448 0.5425 0.5379 0.5379 0.5425 0.5471 0.5517 0.5563 0.5609 0.5586 0.5540 0.5563 0.5609 0.5701 0.5793 0.5862 0.5931 0.5931 0.5862 0.5816 0.5816 0.5839 0.5839 0.5839 0.5839 0.5839 0.5839 0.5839 0.5816 0.5770 0.5747 0.5724 0.5655 0.5586 0.5517 0.5494 0.5471 0.5379 0.5287 0.5287 0.5333 0.5379 0.5356 0.5379 0.5402 0.5402 0.5402 0.5402 0.5425 0.5494 0.5563 0.5540 0.5540 0.5517 0.5494 0.5448 0.5379 0.5333 0.5333 0.5356 0.5333 0.5310 0.5287 0.5287 0.5333 0.5448 0.5494 0.5517 0.5517 0.5540 0.5586 0.5609 0.5632 0.5609 0.5609 0.5586 0.5586 0.5609 0.5540 0.5448 0.5333 0.5241 0.5218 0.5241 0.5264 0.5333 0.5425 0.5494 0.5540 0.5632 0.5724 0.5862 0.5977 0.5954 0.5885 0.5816 0.5724 0.5655 0.5563 0.5517 0.5448 0.5471 0.5494 0.5517 0.5494 0.5425 0.5356 0.5287 0.5195 0.5103 0.5034 0.4989 0.4966 0.4966 0.4874 0.4805 0.4828 0.4874 0.4943 0.4989 0.5011 0.5011 0.4966 0.4874 0.4782 0.4736 0.4690 0.4667 0.4644 0.4621 0.4621 0.4644 0.4690 0.4713 0.4713 0.4713 0.4667 0.4690 0.4713 0.4759 0.4828 0.4897 0.4897 0.4874 0.4897 0.4966 0.5011 0.5034 0.5057 0.5057 0.5057 0.5080 0.5103 0.5103 0.5103 0.5126 0.5149 0.5195 0.5264 0.5310 0.5333 0.5356 0.5333 0.5333 0.5356 0.5402 0.5494 0.5563 0.5632 0.5655 0.5632 0.5609 0.5655 0.5770 0.5885 0.5908 0.5908 0.5885 0.5908 0.5954 0.5954 0.6000 0.6046 0.6092 0.6138 0.6138 0.6115 0.6092 0.6069 0.6115 0.6207 0.6276 0.6322 0.6414 0.6506 0.6529 0.6529 0.6552 0.6552 0.6506 0.6460 0.6391 0.6322 0.6253 0.6138 0.6092 0.6092 0.6092 0.6115 0.6138 0.6092 0.6023 0.5931 0.5839 0.5793 0.5747 0.5793 0.5816 0.5839 0.5793 0.5770 0.5747 0.5770 0.5793 0.5862 0.5862 0.5816 0.5816 0.5862 0.5885 0.5931
0.5816 0.5839 0.5793 0.5701 0.5609 0.5540 0.5563 0.5517 0.5494 0.5471 0.5494 0.5448 0.5402 0.5379 0.5402 0.5448 0.5471 0.5517 0.5540 0.5540 0.5517 0.5540 0.5586 0.5701 0.5793 0.5862 0.5931 0.5977 0.5954 0.5908 0.5954 0.5977 0.5977 0.5954 0.5954 0.5908 0.5885 0.5885 0.5862 0.5793 0.5724 0.5678 0.5632 0.5563 0.5517 0.5494 0.5448 0.5379 0.5356 0.5379 0.5402 0.5448 0.5471 0.5471 0.5494 0.5494 0.5540 0.5540 0.5517 0.5540 0.5586 0.5563 0.5540 0.5517 0.5494 0.5471 0.5379 0.5287 0.5287 0.5287 0.5287 0.5287 0.5287 0.5264 0.5287 0.5379 0.5448 0.5448 0.5494 0.5540 0.5586 0.5586 0.5632 0.5678 0.5701 0.5678 0.5655 0.5655 0.5609 0.5471 0.5356 0.5287 0.5264 0.5264 0.5310 0.5379 0.5448 0.5517 0.5540 0.5609 0.5724 0.5839 0.5885 0.5885 0.5839 0.5747 0.5655 0.5586 0.5494 0.5402 0.5356 0.5402 0.5448 0.5448 0.5448 0.5448 0.5425 0.5333 0.5218 0.5080 0.4989 0.4920 0.4943 0.4966 0.4966 0.4943 0.4966 0.5034 0.5126 0.5149 0.5103 0.5103 0.5034 0.4966 0.4920 0.4828 0.4759 0.4667 0.4644 0.4621 0.4621 0.4644 0.4690 0.4713 0.4736 0.4713 0.4690 0.4690 0.4736 0.4759 0.4782 0.4828 0.4851 0.4851 0.4874 0.4897 0.4943 0.4989 0.5011 0.5011 0.4989 0.5011 0.5034 0.5011 0.5034 0.5057 0.5103 0.5126 0.5149 0.5195 0.5218 0.5264 0.5264 0.5264 0.5287 0.5333 0.5402 0.5402 0.5425 0.5448 0.5471 0.5517 0.5586 0.5701 0.5793 0.5862 0.5885 0.5908 0.5885 0.5908 0.5908 0.5908 0.5931 0.5977 0.6046 0.6023 0.5977 0.5954 0.5954 0.6046 0.6161 0.6230 0.6345 0.6460 0.6506 0.6575 0.6621 0.6621 0.6598 0.6575 0.6552 0.6460 0.6368 0.6276 0.6184 0.6138 0.6207 0.6253 0.6207 0.6184 0.6138 0.6046 0.5931 0.5839 0.5793 0.5816 0.5885 0.5908 0.5954 0.5954 0.5908 0.5885 0.5862 0.5839 0.5839 0.5816 0.5770 0.5770 0.5770 0.5839 0.5885
0.5839 0.5839 0.5770 0.5678 0.5609 0.5563 0.5563 0.5563 0.5563 0.5540 0.5517 0.5448 0.5425 0.5402 0.5448 0.5471 0.5471 0.5471 0.5517 0.5540 0.5563 0.5586 0.5678 0.5816 0.5885 0.5931 0.6000 0.6046 0.6023 0.6000 0.6000 0.6023 0.6023 0.6000 0.5954 0.5931 0.5885 0.5862 0.5816 0.5747 0.5655 0.5586 0.5586 0.5563 0.5540 0.5517 0.5471 0.5425 0.5448 0.5448 0.5494 0.5540 0.5563 0.5563 0.5586 0.5609 0.5632 0.5655 0.5609 0.5609 0.5586 0.5563 0.5563 0.5540 0.5517 0.5448 0.5356 0.5264 0.5241 0.5241 0.5241 0.5264 0.5310 0.5287 0.5287 0.5356 0.5402 0.5402 0.5425 0.5517 0.5540 0.5540 0.5609 0.5655 0.5678 0.5678 0.5701 0.5678 0.5632 0.5494 0.5402 0.5356 0.5310 0.5333 0.5379 0.5425 0.5494 0.5540 0.5563 0.5632 0.5701 0.5747 0.5770 0.5724 0.5678 0.5655 0.5563 0.5494 0.5425 0.5356 0.5333 0.5310 0.5333 0.5356 0.5333 0.5356 0.5356 0.5287 0.5195 0.5080 0.4966 0.4920 0.4943 0.5011 0.5057 0.5034 0.5080 0.5149 0.5241 0.5241 0.5195 0.5172 0.5126 0.5057 0.4966 0.4874 0.4759 0.4621 0.4621 0.4598 0.4621 0.4644 0.4667 0.4713 0.4690 0.4690 0.4667 0.4690 0.4736 0.4759 0.4759 0.4782 0.4805 0.4851 0.4851 0.4874 0.4920 0.4943 0.4920 0.4920 0.4920 0.4943 0.4943 0.4966 0.4989 0.5011 0.5057 0.5034 0.5034 0.5057 0.5126 0.5149 0.5195 0.5195 0.5218 0.5264 0.5241 0.5218 0.5218 0.5287 0.5402 0.5471 0.5517 0.5586 0.5655 0.5747 0.5793 0.5793 0.5793 0.5793 0.5770 0.5770 0.5793 0.5862 0.5862 0.5839 0.5816 0.5885 0.5977 0.6092 0.6207 0.6299 0.6414 0.6506 0.6575 0.6621 0.6644 0.6644 0.6598 0.6598 0.6575 0.6506 0.6460 0.6391 0.6276 0.6253 0.6276 0.6345 0.6322 0.6230 0.6138 0.6046 0.5931 0.5839 0.5816 0.5885 0.5931 0.6000 0.6023 0.6069 0.6069 0.6023 0.5977 0.5931 0.5885 0.5862 0.5862 0.5885 0.5862 0.5862 0.5885
0.5908 0.5862 0.5793 0.5701 0.5655 0.5632 0.5609 0.5563 0.5586 0.5586 0.5540 0.5517 0.5471 0.5448 0.5471 0.5471 0.5448 0.5471 0.5517 0.5586 0.5609 0.5678 0.5793 0.5954 0.6000 0.6023 0.6023 0.6023 0.6023 0.6000 0.6023 0.6023 0.6023 0.6000 0.5977 0.5931 0.5908 0.5862 0.5793 0.5701 0.5655 0.5586 0.5563 0.5563 0.5563 0.5540 0.5517 0.5494 0.5494 0.5494 0.5517 0.5540 0.5563 0.5586 0.5632 0.5632 0.5655 0.5678 0.5655 0.5632 0.5586 0.5586 0.5540 0.5563 0.5517 0.5448 0.5356 0.5287 0.5264 0.5264 0.5264 0.5287 0.5356 0.5379 0.5379 0.5379 0.5402 0.5379 0.5425 0.5471 0.5540 0.5517 0.5563 0.5632 0.5655 0.5655 0.5701 0.5701 0.5632 0.5517 0.5448 0.5425 0.5379 0.5402 0.5448 0.5494 0.5540 0.5563 0.5563 0.5563 0.5609 0.5655 0.5586 0.5540 0.5540 0.5494 0.5448 0.5448 0.5402 0.5333 0.5287 0.5310 0.5264 0.5241 0.5241 0.5241 0.5241 0.5195 0.5126 0.5034 0.4966 0.4943 0.5011 0.5126 0.5195 0.5218 0.5218 0.5241 0.5287 0.5333 0.5356 0.5356 0.5287 0.5172 0.5080 0.4920 0.4736 0.4621 0.4598 0.4575 0.4598 0.4621 0.4667 0.4644 0.4621 0.4621 0.4644 0.4690 0.4736 0.4759 0.4782 0.4782 0.4805 0.4828 0.4828 0.4874 0.4920 0.4920 0.4897 0.4897 0.4920 0.4943 0.4943 0.4920 0.4989 0.5034 0.5057 0.5034 0.5034 0.5057 0.5080 0.5103 0.5126 0.5149 0.5172 0.5195 0.5195 0.5172 0.5195 0.5264 0.5333 0.5425 0.5471 0.5517 0.5586 0.5632 0.5678 0.5724 0.5701 0.5678 0.5632 0.5632 0.5678 0.5701 0.5747 0.5701 0.5816 0.5931 0.6023 0.6138 0.6253 0.6391 0.6506 0.6575 0.6598 0.6621 0.6621 0.6621 0.6621 0.6598 0.6598 0.6552 0.6529 0.6506 0.6437 0.6345 0.6322 0.6345 0.6345 0.6230 0.6115 0.6023 0.5954 0.5862 0.5839 0.5908 0.5977 0.6046 0.6092 0.6138 0.6161 0.6138 0.6092 0.6069 0.6046 0.6023 0.6023 0.6023 0.5977 0.5954 0.5954
0.5954 0.5908 0.5839 0.5770 0.5724 0.5678 0.5609 0.5586 0.5586 0.5586 0.5609 0.5586 0.5517 0.5494 0.5471 0.5471 0.5448 0.5471 0.5517 0.5563 0.5632 0.5701 0.5793 0.5908 0.6000 0.5977 0.5977 0.5977 0.6000 0.6023 0.6069 0.6046 0.6023 0.6023 0.6000 0.5977 0.5908 0.5862 0.5793 0.5724 0.5678 0.5632 0.5586 0.5563 0.5563 0.5563 0.5563 0.5586 0.5563 0.5540 0.5540 0.5586 0.5609 0.5586 0.5632 0.5655 0.5678 0.5701 0.5724 0.5678 0.5632 0.5563 0.5540 0.5494 0.5471 0.5402 0.5356 0.5310 0.5333 0.5333 0.5333 0.5379 0.5425 0.5448 0.5448 0.5425 0.5425 0.5425 0.5471 0.5563 0.5540 0.5517 0.5540 0.5632 0.5678 0.5701 0.5724 0.5678 0.5586 0.5494 0.5448 0.5448 0.5448 0.5494 0.5540 0.5586 0.5609 0.5586 0.5540 0.5517 0.5517 0.5540 0.5471 0.5448 0.5425 0.5379 0.5379 0.5356 0.5333 0.5241 0.5195 0.5195 0.5195 0.5172 0.5149 0.5126 0.5103 0.5057 0.5057 0.5034 0.4989 0.4989 0.5103 0.5241 0.5310 0.5402 0.5425 0.5448 0.5402 0.5402 0.5425 0.5425 0.5379 0.5264 0.5149 0.4943 0.4759 0.4667 0.4621 0.4621 0.4621 0.4644 0.4667 0.4644 0.4621 0.4644 0.4667 0.4690 0.4736 0.4759 0.4782 0.4805 0.4828 0.4828 0.4851 0.4897 0.4966 0.4966 0.4943 0.4966 0.4989 0.5011 0.4966 0.4989 0.5011 0.5057 0.5103 0.5103 0.5103 0.5080 0.5080 0.5149 0.5195 0.5218 0.5218 0.5241 0.5241 0.5264 0.5241 0.5218 0.5287 0.5379 0.5448 0.5471 0.5540 0.5586 0.5632 0.5632 0.5655 0.5586 0.5563 0.5563 0.5609 0.5678 0.5724 0.5816 0.5908 0.5977 0.6092 0.6184 0.6322 0.6437 0.6529 0.6552 0.6575 0.6575 0.6575 0.6575 0.6575 0.6575 0.6598 0.6621 0.6621 0.6621 0.6552 0.6506 0.6437 0.6368 0.6322 0.6230 0.6115 0.6046 0.5977 0.5885 0.5908 0.6000 0.6115 0.6184 0.6207 0.6230 0.6299 0.6299 0.6276 0.6230 0.6184 0.6138 0.6115 0.6069 0.6069 0.6069 0.6069
0.5977 0.5954 0.5908 0.5839 0.5747 0.5724 0.5678 0.5632 0.5632 0.5632 0.5632 0.5655 0.5586 0.5494 0.5471 0.5471 0.5448 0.5448 0.5471 0.5494 0.5563 0.5655 0.5724 0.5862 0.5931 0.5931 0.5931 0.5954 0.6000 0.6046 0.6069 0.6023 0.6000 0.5977 0.5977 0.5954 0.5931 0.5839 0.5770 0.5678 0.5655 0.5609 0.5586 0.5586 0.5632 0.5701 0.5724 0.5724 0.5678 0.5655 0.5678 0.5701 0.5701 0.5678 0.5678 0.5701 0.5701 0.5724 0.5724 0.5701 0.5632 0.5586 0.5517 0.5425 0.5402 0.5379 0.5356 0.5356 0.5333 0.5356 0.5379 0.5402 0.5471 0.5494 0.5517 0.5494 0.5494 0.5494 0.5563 0.5678 0.5678 0.5655 0.5632 0.5678 0.5701 0.5747 0.5770 0.5701 0.5586 0.5494 0.5448 0.5494 0.5517 0.5540 0.5632 0.5632 0.5609 0.5563 0.5517 0.5448 0.5425 0.5425 0.5402 0.5333 0.5287 0.5287 0.5287 0.5264 0.5241 0.5195 0.5149 0.5126 0.5149 0.5149 0.5080 0.5034 0.4989 0.5011 0.5034 0.5011 0.5011 0.5103 0.5264 0.5402 0.5448 0.5517 0.5655 0.5655 0.5540 0.5471 0.5448 0.5471 0.5379 0.5287 0.5149 0.4989 0.4828 0.4713 0.4621 0.4621 0.4598 0.4621 0.4667 0.4667 0.4667 0.4690 0.4713 0.4736 0.4736 0.4759 0.4782 0.4805 0.4805 0.4851 0.4897 0.4966 0.5011 0.5011 0.5011 0.5034 0.5080 0.5080 0.5080 0.5080 0.5126 0.5149 0.5172 0.5172 0.5195 0.5195 0.5195 0.5241 0.5333 0.5356 0.5333 0.5310 0.5310 0.5310 0.5264 0.5218 0.5218 0.5356 0.5402 0.5425 0.5471 0.5471 0.5471 0.5494 0.5471 0.5517 0.5517 0.5586 0.5655 0.5724 0.5816 0.5908 0.5977 0.6069 0.6161 0.6253 0.6368 0.6460 0.6506 0.6529 0.6552 0.6552 0.6506 0.6460 0.6460 0.6483 0.6552 0.6621 0.6644 0.6644 0.6621 0.6598 0.6529 0.6460 0.6368 0.6276 0.6161 0.6046 0.5977 0.5908 0.5954 0.6046 0.6184 0.6253 0.6299 0.6368 0.6437 0.6460 0.6414 0.6391 0.6322 0.6253 0.6207 0.6161 0.6161 0.6184 0.6230
0.6000 0.5954 0.5931 0.5885 0.5816 0.5770 0.5724 0.5678 0.5655 0.5678 0.5701 0.5701 0.5655 0.5563 0.5517 0.5494 0.5448 0.5425 0.5425 0.5471 0.5517 0.5609 0.5701 0.5770 0.5862 0.5931 0.5931 0.5954 0.6000 0.6046 0.6069 0.6046 0.6023 0.5977 0.5908 0.5885 0.5839 0.5747 0.5678 0.5632 0.5586 0.5609 0.5632 0.5655 0.5701 0.5747 0.5839 0.5862 0.5839 0.5816 0.5793 0.5793 0.5770 0.5770 0.5724 0.5724 0.5724 0.5701 0.5678 0.5655 0.5632 0.5586 0.5517 0.5471 0.5402 0.5402 0.5402 0.5379 0.5356 0.5379 0.5402 0.5448 0.5494 0.5540 0.5563 0.5563 0.5586 0.5563 0.5701 0.5816 0.5839 0.5770 0.5724 0.5701 0.5747 0.5793 0.5816 0.5793 0.5655 0.5540 0.5517 0.5563 0.5609 0.5655 0.5701 0.5632 0.5586 0.5517 0.5448 0.5402 0.5333 0.5333 0.5264 0.5218 0.5241 0.5264 0.5241 0.5241 0.5218 0.5195 0.5172 0.5172 0.5195 0.5172 0.5172 0.5103 0.5080 0.5057 0.5011 0.5011 0.5103 0.5264 0.5448 0.5563 0.5632 0.5655 0.5770 0.5816 0.5724 0.5632 0.5609 0.5609 0.5517 0.5333 0.5218 0.5057 0.4943 0.4805 0.4690 0.4621 0.4598 0.4621 0.4644 0.4667 0.4667 0.4667 0.4713 0.4736 0.4759 0.4759 0.4759 0.4759 0.4782 0.4828 0.4920 0.4989 0.5011 0.5034 0.5057 0.5057 0.5080 0.5103 0.5126 0.5149 0.5172 0.5172 0.5172 0.5218 0.5287 0.5264 0.5241 0.5264 0.5310 0.5379 0.5379 0.5356 0.5356 0.5333 0.5310 0.5310 0.5333 0.5356 0.5402 0.5402 0.5379 0.5356 0.5356 0.5402 0.5425 0.5471 0.5563 0.5632 0.5678 0.5770 0.5862 0.5931 0.6023 0.6092 0.6184 0.6276 0.6368 0.6437 0.6460 0.6483 0.6483 0.6483 0.6437 0.6368 0.6345 0.6391 0.6506 0.6575 0.6644 0.6667 0.6667 0.6644 0.6575 0.6506 0.6391 0.6322 0.6230 0.6115 0.6023 0.5977 0.5977 0.6046 0.6161 0.6253 0.6368 0.6483 0.6529 0.6552 0.6552 0.6529 0.6460 0.6368 0.6276 0.6253 0.6207 0.6253 0.6253
0.6023 0.5977 0.5908 0.5885 0.5839 0.5770 0.5701 0.5678 0.5678 0.5770 0.5793 0.5747 0.5678 0.5609 0.5563 0.5517 0.5471 0.5448 0.5448 0.5471 0.5517 0.5563 0.5609 0.5632 0.5747 0.5862 0.5954 0.5977 0.6000 0.6069 0.6092 0.6092 0.6046 0.5954 0.5862 0.5793 0.5747 0.5678 0.5632 0.5609 0.5609 0.5609 0.5655 0.5678 0.5724 0.5770 0.5839 0.5862 0.5839 0.5862 0.5885 0.5885 0.5885 0.5862 0.5816 0.5793 0.5770 0.5747 0.5678 0.5632 0.5586 0.5540 0.5540 0.5471 0.5425 0.5425 0.5425 0.5448 0.5471 0.5448 0.5517 0.5563 0.5563 0.5586 0.5563 0.5586 0.5609 0.5678 0.5747 0.5839 0.5839 0.5816 0.5793 0.5816 0.5793 0.5816 0.5816 0.5839 0.5770 0.5701 0.5655 0.5678 0.5701 0.5724 0.5701 0.5655 0.5540 0.5471 0.5425 0.5379 0.5333 0.5264 0.5241 0.5264 0.5310 0.5310 0.5287 0.5287 0.5264 0.5264 0.5287 0.5287 0.5310 0.5333 0.5333 0.5333 0.5264 0.5195 0.5103 0.5080 0.5126 0.5287 0.5448 0.5586 0.5655 0.5747 0.5839 0.5885 0.5862 0.5793 0.5747 0.5724 0.5632 0.5448 0.5264 0.5149 0.5057 0.4920 0.4828 0.4736 0.4690 0.4667 0.4667 0.4667 0.4667 0.4644 0.4644 0.4690 0.4736 0.4759 0.4759 0.4759 0.4782 0.4851 0.4897 0.4966 0.5057 0.5080 0.5080 0.5080 0.5103 0.5103 0.5126 0.5149 0.5149 0.5195 0.5218 0.5241 0.5287 0.5287 0.5264 0.5264 0.5333 0.5356 0.5379 0.5402 0.5402 0.5402 0.5402 0.5448 0.5471 0.5494 0.5425 0.5379 0.5356 0.5333 0.5356 0.5402 0.5494 0.5540 0.5609 0.5678 0.5701 0.5770 0.5862 0.5954 0.6023 0.6115 0.6184 0.6253 0.6322 0.6368 0.6368 0.6345 0.6322 0.6299 0.6322 0.6299 0.6322 0.6368 0.6506 0.6598 0.6644 0.6690 0.6713 0.6644 0.6598 0.6529 0.6460 0.6368 0.6299 0.6184 0.6069 0.6000 0.6000 0.6069 0.6161 0.6322 0.6437 0.6575 0.6644 0.6667 0.6713 0.6690 0.6667 0.6575 0.6483 0.6414 0.6391 0.6322 0.6299
0.6069 0.6046 0.5931 0.5839 0.5816 0.5793 0.5770 0.5747 0.5793 0.5816 0.5839 0.5793 0.5747 0.5632 0.5609 0.5586 0.5540 0.5494 0.5494 0.5517 0.5540 0.5540 0.5563 0.5586 0.5632 0.5816 0.5908 0.5954 0.6023 0.6069 0.6046 0.6023 0.5977 0.5908 0.5816 0.5770 0.5747 0.5701 0.5655 0.5632 0.5632 0.5632 0.5655 0.5701 0.5724 0.5770 0.5839 0.5885 0.5885 0.5885 0.5885 0.5885 0.5908 0.5908 0.5862 0.5839 0.5816 0.5793 0.5724 0.5678 0.5632 0.5563 0.5540 0.5494 0.5425 0.5425 0.5471 0.5494 0.5517 0.5563 0.5632 0.5655 0.5632 0.5609 0.5609 0.5586 0.5609 0.5701 0.5770 0.5793 0.5885 0.5885 0.5931 0.5954 0.5908 0.5862 0.5862 0.5816 0.5816 0.5793 0.5770 0.5747 0.5724 0.5701 0.5655 0.5586 0.5471 0.5379 0.5356 0.5356 0.5379 0.5356 0.5356 0.5379 0.5402 0.5356 0.5356 0.5333 0.5356 0.5379 0.5402 0.5402 0.5402 0.5448 0.5517 0.5494 0.5425 0.5287 0.5195 0.5103 0.5126 0.5241 0.5448 0.5586 0.5678 0.5770 0.5839 0.5885 0.5908 0.5862 0.5816 0.5747 0.5609 0.5471 0.5264 0.5149 0.5057 0.4943 0.4874 0.4782 0.4690 0.4667 0.4690 0.4690 0.4667 0.4667 0.4667 0.4667 0.4713 0.4782 0.4805 0.4805 0.4851 0.4897 0.4966 0.5034 0.5126 0.5149 0.5126 0.5126 0.5126 0.5126 0.5126 0.5149 0.5195 0.5241 0.5264 0.5264 0.5287 0.5310 0.5333 0.5356 0.5402 0.5448 0.5471 0.5517 0.5517 0.5517 0.5494 0.5540 0.5586 0.5540 0.5494 0.5425 0.5425 0.5402 0.5402 0.5494 0.5586 0.5632 0.5678 0.5701 0.5747 0.5816 0.5885 0.5977 0.6046 0.6138 0.6184 0.6230 0.6253 0.6253 0.6253 0.6230 0.6207 0.6184 0.6230 0.6299 0.6391 0.6460 0.6506 0.6575 0.6621 0.6667 0.6690 0.6667 0.6644 0.6575 0.6460 0.6345 0.6230 0.6138 0.6046 0.6046 0.6046 0.6069 0.6184 0.6322 0.6483 0.6621 0.6713 0.6782 0.6782 0.6805 0.6828 0.6759 0.6667 0.6598 0.6529 0.6460 0.6391
0.6092 0.6069 0.5931 0.5839 0.5816 0.5816 0.5862 0.5862 0.5839 0.5839 0.5839 0.5839 0.5793 0.5701 0.5632 0.5609 0.5586 0.5540 0.5540 0.5540 0.5586 0.5563 0.5540 0.5563 0.5632 0.5724 0.5816 0.5839 0.5885 0.5954 0.5977 0.5954 0.5908 0.5862 0.5816 0.5816 0.5816 0.5747 0.5678 0.5655 0.5655 0.5678 0.5724 0.5724 0.5747 0.5816 0.5908 0.5954 0.5954 0.5954 0.5885 0.5862 0.5862 0.5862 0.5839 0.5793 0.5747 0.5747 0.5701 0.5632 0.5586 0.5586 0.5563 0.5517 0.5448 0.5448 0.5471 0.5494 0.5517 0.5586 0.5655 0.5678 0.5655 0.5632 0.5655 0.5632 0.5655 0.5747 0.5839 0.5931 0.5931 0.6000 0.6023 0.6046 0.6000 0.5931 0.5885 0.5862 0.5839 0.5816 0.5770 0.5701 0.5678 0.5632 0.5563 0.5494 0.5379 0.5310 0.5333 0.5402 0.5448 0.5494 0.5540 0.5540 0.5448 0.5402 0.5379 0.5425 0.5448 0.5517 0.5517 0.5471 0.5517 0.5586 0.5655 0.5632 0.5540 0.5402 0.5264 0.5126 0.5126 0.5241 0.5402 0.5540 0.5632 0.5747 0.5839 0.5908 0.5908 0.5885 0.5862 0.5724 0.5563 0.5379 0.5241 0.5103 0.4943 0.4897 0.4851 0.4782 0.4690 0.4644 0.4667 0.4690 0.4690 0.4690 0.4690 0.4690 0.4713 0.4782 0.4805 0.4851 0.4897 0.4920 0.4989 0.5080 0.5172 0.5172 0.5172 0.5149 0.5172 0.5149 0.5149 0.5172 0.5241 0.5310 0.5333 0.5310 0.5310 0.5356 0.5402 0.5448 0.5517 0.5540 0.5563 0.5586 0.5609 0.5609 0.5609 0.5632 0.5632 0.5609 0.5540 0.5494 0.5494 0.5471 0.5448 0.5517 0.5609 0.5678 0.5724 0.5747 0.5793 0.5862 0.5954 0.6000 0.6069 0.6138 0.6184 0.6184 0.6161 0.6138 0.6115 0.6115 0.6115 0.6138 0.6207 0.6322 0.6437 0.6506 0.6552 0.6575 0.6598 0.6644 0.6667 0.6667 0.6621 0.6529 0.6414 0.6322 0.6230 0.6138 0.6069 0.6046 0.6046 0.6092 0.6161 0.6276 0.6414 0.6552 0.6690 0.6736 0.6805 0.6851 0.6874 0.6851 0.6782 0.6713 0.6644 0.6552 0.6529
0.6069 0.6069 0.5977 0.5908 0.5908 0.5954 0.5954 0.5908 0.5862 0.5816 0.5793 0.5793 0.5793 0.5724 0.5632 0.5586 0.5586 0.5586 0.5586 0.5609 0.5586 0.5563 0.5540 0.5540 0.5586 0.5678 0.5724 0.5724 0.5770 0.5839 0.5862 0.5885 0.5862 0.5862 0.5862 0.5908 0.5885 0.5816 0.5747 0.5678 0.5678 0.5770 0.5839 0.5839 0.5839 0.5908 0.5977 0.5977 0.5954 0.5931 0.5931 0.5885 0.5862 0.5839 0.5816 0.5770 0.5678 0.5632 0.5609 0.5586 0.5563 0.5563 0.5563 0.5517 0.5471 0.5448 0.5471 0.5494 0.5517 0.5540 0.5632 0.5655 0.5655 0.5678 0.5701 0.5724 0.5770 0.5862 0.5908 0.5977 0.5977 0.5977 0.6023 0.6023 0.6023 0.5977 0.5977 0.5954 0.5931 0.5885 0.5770 0.5655 0.5609 0.5586 0.5517 0.5448 0.5402 0.5448 0.5471 0.5517 0.5609 0.5678 0.5701 0.5609 0.5471 0.5402 0.5448 0.5471 0.5494 0.5563 0.5586 0.5632 0.5632 0.5678 0.5747 0.5724 0.5655 0.5540 0.5379 0.5172 0.5149 0.5287 0.5425 0.5517 0.5632 0.5747 0.5885 0.5954 0.5977 0.5954 0.5862 0.5724 0.5540 0.5379 0.5218 0.5034 0.4897 0.4874 0.4874 0.4805 0.4736 0.4667 0.4667 0.4713 0.4736 0.4736 0.4713 0.4713 0.4713 0.4736 0.4805 0.4851 0.4897 0.4920 0.4943 0.5057 0.5149 0.5172 0.5149 0.5195 0.5218 0.5195 0.5172 0.5218 0.5287 0.5356 0.5379 0.5379 0.5379 0.5425 0.5471 0.5494 0.5517 0.5540 0.5586 0.5609 0.5632 0.5632 0.5655 0.5655 0.5655 0.5632 0.5609 0.5563 0.5563 0.5517 0.5471 0.5494 0.5586 0.5701 0.5770 0.5816 0.5862 0.5908 0.5977 0.6046 0.6115 0.6138 0.6138 0.6092 0.6069 0.6069 0.6046 0.6046 0.6069 0.6115 0.6184 0.6276 0.6391 0.6483 0.6506 0.6529 0.6598 0.6644 0.6667 0.6644 0.6598 0.6506 0.6391 0.6322 0.6230 0.6138 0.6069 0.6023 0.6000 0.6069 0.6115 0.6230 0.6368 0.6506 0.6598 0.6667 0.6736 0.6782 0.6851 0.6851 0.6828 0.6805 0.6759 0.6690 0.6644
0.6184 0.6138 0.6023 0.5977 0.5977 0.6000 0.5977 0.5908 0.5839 0.5770 0.5747 0.5724 0.5701 0.5701 0.5609 0.5563 0.5586 0.5632 0.5655 0.5632 0.5609 0.5586 0.5563 0.5540 0.5540 0.5586 0.5655 0.5678 0.5724 0.5770 0.5793 0.5770 0.5793 0.5839 0.5931 0.6000 0.5977 0.5885 0.5770 0.5701 0.5724 0.5839 0.5931 0.5954 0.5931 0.5931 0.5954 0.5954 0.5931 0.5931 0.5954 0.5954 0.5908 0.5885 0.5839 0.5770 0.5655 0.5586 0.5563 0.5563 0.5563 0.5586 0.5563 0.5517 0.5471 0.5471 0.5471 0.5494 0.5517 0.5540 0.5632 0.5678 0.5701 0.5701 0.5747 0.5793 0.5862 0.5908 0.5954 0.5977 0.5977 0.5977 0.5977 0.6000 0.5977 0.5977 0.5977 0.5954 0.5954 0.5839 0.5724 0.5632 0.5586 0.5563 0.5517 0.5471 0.5563 0.5655 0.5724 0.5747 0.5793 0.5816 0.5770 0.5632 0.5494 0.5448 0.5471 0.5540 0.5563 0.5655 0.5724 0.5747 0.5747 0.5793 0.5770 0.5793 0.5793 0.5701 0.5540 0.5333 0.5287 0.5333 0.5448 0.5563 0.5724 0.5839 0.5908 0.5977 0.5977 0.5908 0.5793 0.5678 0.5563 0.5402 0.5218 0.5011 0.4874 0.4874 0.4874 0.4874 0.4782 0.4713 0.4713 0.4759 0.4782 0.4782 0.4759 0.4736 0.4736 0.4736 0.4782 0.4828 0.4851 0.4897 0.4943 0.4989 0.5080 0.5172 0.5218 0.5241 0.5287 0.5241 0.5264 0.5264 0.5333 0.5379 0.5379 0.5425 0.5448 0.5448 0.5471 0.5494 0.5494 0.5540 0.5563 0.5609 0.5632 0.5632 0.5655 0.5655 0.5678 0.5701 0.5701 0.5678 0.5655 0.5586 0.5494 0.5494 0.5586 0.5655 0.5770 0.5839 0.5885 0.5931 0.5977 0.6046 0.6092 0.6092 0.6069 0.6023 0.6000 0.6000 0.6023 0.6023 0.6046 0.6046 0.6115 0.6230 0.6322 0.6414 0.6437 0.6460 0.6575 0.6644 0.6621 0.6621 0.6552 0.6460 0.6368 0.6299 0.6230 0.6161 0.6069 0.6023 0.6023 0.6069 0.6138 0.6207 0.6299 0.6368 0.6437 0.6529 0.6644 0.6713 0.6782 0.6828 0.6874 0.6920 0.6874 0.6828 0.6759
0.6276 0.6161 0.6046 0.5977 0.5977 0.5954 0.5931 0.5862 0.5793 0.5747 0.5747 0.5747 0.5747 0.5724 0.5678 0.5609 0.5632 0.5678 0.5655 0.5655 0.5655 0.5724 0.5701 0.5655 0.5632 0.5632 0.5632 0.5678 0.5724 0.5747 0.5770 0.5770 0.5770 0.5839 0.5931 0.6046 0.6000 0.5931 0.5862 0.5816 0.5862 0.5954 0.6023 0.6000 0.5931 0.5954 0.5977 0.6046 0.6023 0.5977 0.6000 0.5977 0.5954 0.5908 0.5839 0.5747 0.5655 0.5609 0.5586 0.5586 0.5609 0.5609 0.5586 0.5563 0.5494 0.5494 0.5494 0.5517 0.5540 0.5586 0.5632 0.5678 0.5678 0.5701 0.5747 0.5816 0.5862 0.5908 0.5931 0.5931 0.5908 0.5931 0.6000 0.6023 0.6000 0.5954 0.5931 0.5885 0.5839 0.5747 0.5655 0.5609 0.5586 0.5563 0.5471 0.5540 0.5655 0.5770 0.5862 0.5862 0.5839 0.5816 0.5793 0.5655 0.5540 0.5494 0.5540 0.5586 0.5632 0.5724 0.5885 0.5908 0.5885 0.5862 0.5839 0.5862 0.5793 0.5747 0.5632 0.5402 0.5287 0.5310 0.5402 0.5586 0.5793 0.5908 0.5931 0.5908 0.5885 0.5816 0.5724 0.5609 0.5494 0.5379 0.5241 0.5034 0.4920 0.4874 0.4874 0.4851 0.4828 0.4782 0.4759 0.4782 0.4782 0.4782 0.4805 0.4782 0.4759 0.4736 0.4759 0.4782 0.4805 0.4828 0.4828 0.4874 0.5011 0.5149 0.5218 0.5218 0.5264 0.5287 0.5333 0.5356 0.5379 0.5402 0.5402 0.5425 0.5471 0.5471 0.5494 0.5471 0.5494 0.5540 0.5586 0.5609 0.5632 0.5632 0.5655 0.5678 0.5724 0.5747 0.5747 0.5724 0.5701 0.5655 0.5586 0.5563 0.5586 0.5678 0.5770 0.5839 0.5885 0.5931 0.5954 0.5954 0.5977 0.5977 0.5954 0.5931 0.5954 0.6000 0.6023 0.6069 0.6046 0.6046 0.6115 0.6253 0.6322 0.6368 0.6391 0.6437 0.6575 0.6667 0.6690 0.6598 0.6529 0.6414 0.6368 0.6322 0.6299 0.6230 0.6161 0.6115 0.6092 0.6092 0.6092 0.6161 0.6230 0.6276 0.6345 0.6414 0.6506 0.6644 0.6690 0.6736 0.6828 0.6943 0.7011 0.6989 0.6989
0.6184 0.6069 0.5931 0.5954 0.5908 0.5908 0.5862 0.5816 0.5747 0.5724 0.5747 0.5793 0.5816 0.5839 0.5793 0.5747 0.5724 0.5678 0.5678 0.5701 0.5770 0.5793 0.5793 0.5793 0.5701 0.5655 0.5655 0.5678 0.5701 0.5747 0.5793 0.5816 0.5816 0.5839 0.5931 0.6000 0.6023 0.5977 0.5977 0.5977 0.5931 0.5977 0.6000 0.6000 0.6023 0.6069 0.6138 0.6138 0.6115 0.6000 0.5977 0.5954 0.5862 0.5816 0.5770 0.5701 0.5678 0.5632 0.5609 0.5632 0.5655 0.5655 0.5655 0.5655 0.5586 0.5563 0.5540 0.5563 0.5586 0.5609 0.5655 0.5678 0.5701 0.5724 0.5770 0.5839 0.5862 0.5862 0.5885 0.5862 0.5885 0.5931 0.6000 0.6046 0.6046 0.5954 0.5885 0.5839 0.5816 0.5770 0.5701 0.5678 0.5655 0.5586 0.5517 0.5563 0.5678 0.5816 0.5885 0.5885 0.5862 0.5839 0.5770 0.5678 0.5563 0.5517 0.5586 0.5655 0.5701 0.5816 0.5977 0.6046 0.6023 0.5977 0.5977 0.5954 0.5862 0.5724 0.5609 0.5425 0.5310 0.5333 0.5448 0.5609 0.5793 0.5908 0.5885 0.5816 0.5770 0.5747 0.5678 0.5563 0.5425 0.5333 0.5264 0.5126 0.4966 0.4897 0.4874 0.4897 0.4897 0.4851 0.4782 0.4759 0.4782 0.4805 0.4805 0.4782 0.4759 0.4736 0.4759 0.4759 0.4759 0.4759 0.4782 0.4851 0.4966 0.5034 0.5103 0.5149 0.5195 0.5241 0.5310 0.5379 0.5379 0.5379 0.5356 0.5402 0.5448 0.5471 0.5425 0.5425 0.5494 0.5540 0.5586 0.5609 0.5632 0.5678 0.5701 0.5747 0.5770 0.5793 0.5793 0.5770 0.5747 0.5701 0.5655 0.5609 0.5609 0.5655 0.5724 0.5793 0.5839 0.5885 0.5862 0.5885 0.5908 0.5908 0.5885 0.5885 0.5954 0.6023 0.6069 0.6092 0.6115 0.6115 0.6207 0.6345 0.6391 0.6391 0.6437 0.6552 0.6667 0.6759 0.6736 0.6644 0.6552 0.6483 0.6414 0.6414 0.6414 0.6391 0.6322 0.6253 0.6184 0.6138 0.6092 0.6115 0.6184 0.6253 0.6322 0.6345 0.6437 0.6529 0.6621 0.6667 0.6759 0.6897 0.6989 0.7034 0.7080
0.6115 0.5954 0.5931 0.5954 0.5931 0.5885 0.5839 0.5816 0.5770 0.5747 0.5793 0.5885 0.5908 0.5885 0.5862 0.5816 0.5724 0.5701 0.5701 0.5724 0.5793 0.5816 0.5862 0.5839 0.5747 0.5678 0.5678 0.5724 0.5724 0.5747 0.5793 0.5839 0.5839 0.5862 0.5931 0.6000 0.6023 0.6000 0.6000 0.5977 0.5954 0.6000 0.6069 0.6069 0.6138 0.6207 0.6230 0.6184 0.6092 0.6046 0.6000 0.5954 0.5862 0.5770 0.5747 0.5724 0.5701 0.5655 0.5632 0.5655 0.5678 0.5678 0.5724 0.5724 0.5678 0.5609 0.5563 0.5563 0.5586 0.5609 0.5609 0.5609 0.5655 0.5701 0.5724 0.5793 0.5816 0.5793 0.5816 0.5862 0.5885 0.5954 0.6023 0.6046 0.6046 0.5977 0.5931 0.5908 0.5885 0.5839 0.5770 0.5747 0.5678 0.5632 0.5609 0.5632 0.5724 0.5816 0.5908 0.5954 0.5931 0.5908 0.5816 0.5701 0.5632 0.5609 0.5678 0.5770 0.5816 0.5885 0.6046 0.6115 0.6138 0.6092 0.6046 0.6000 0.5885 0.5793 0.5632 0.5471 0.5425 0.5494 0.5586 0.5701 0.5839 0.5931 0.5885 0.5770 0.5747 0.5724 0.5655 0.5494 0.5379 0.5310 0.5264 0.5172 0.5034 0.4966 0.4943 0.4943 0.4966 0.4943 0.4805 0.4759 0.4782 0.4782 0.4782 0.4759 0.4736 0.4713 0.4713 0.4713 0.4736 0.4759 0.4782 0.4828 0.4897 0.4851 0.4874 0.4943 0.4989 0.5057 0.5126 0.5195 0.5264 0.5287 0.5287 0.5333 0.5402 0.5333 0.5333 0.5356 0.5425 0.5471 0.5471 0.5563 0.5632 0.5701 0.5793 0.5816 0.5839 0.5862 0.5862 0.5839 0.5793 0.5747 0.5701 0.5655 0.5609 0.5655 0.5678 0.5747 0.5816 0.5816 0.5816 0.5839 0.5862 0.5839 0.5839 0.5885 0.5977 0.6046 0.6115 0.6184 0.6230 0.6253 0.6345 0.6437 0.6483 0.6506 0.6552 0.6644 0.6713 0.6782 0.6805 0.6736 0.6644 0.6575 0.6552 0.6575 0.6552 0.6552 0.6506 0.6437 0.6322 0.6207 0.6138 0.6115 0.6138 0.6184 0.6253 0.6322 0.6391 0.6483 0.6575 0.6644 0.6736 0.6851 0.6943 0.7034 0.7080
0.6138 0.6023 0.5931 0.5908 0.5908 0.5931 0.5931 0.5862 0.5862 0.5862 0.5885 0.5954 0.5954 0.5885 0.5839 0.5816 0.5747 0.5678 0.5678 0.5724 0.5816 0.5908 0.5954 0.5908 0.5816 0.5724 0.5770 0.5770 0.5770 0.5747 0.5770 0.5793 0.5816 0.5839 0.5931 0.5977 0.6023 0.6069 0.6138 0.6184 0.6161 0.6138 0.6184 0.6207 0.6230 0.6253 0.6253 0.6230 0.6184 0.6092 0.6023 0.5977 0.5908 0.5816 0.5770 0.5724 0.5724 0.5678 0.5678 0.5724 0.5747 0.5770 0.5770 0.5770 0.5701 0.5609 0.5563 0.5563 0.5563 0.5586 0.5586 0.5586 0.5609 0.5609 0.5655 0.5701 0.5724 0.5724 0.5770 0.5816 0.5885 0.5931 0.5977 0.6023 0.6046 0.6023 0.6000 0.5977 0.5954 0.5908 0.5839 0.5770 0.5724 0.5678 0.5678 0.5701 0.5770 0.5862 0.5954 0.6023 0.6000 0.5977 0.5862 0.5747 0.5701 0.5678 0.5724 0.5793 0.5908 0.6000 0.6092 0.6184 0.6184 0.6161 0.6115 0.6023 0.5908 0.5793 0.5655 0.5540 0.5494 0.5586 0.5678 0.5747 0.5839 0.5885 0.5885 0.5793 0.5724 0.5678 0.5563 0.5471 0.5379 0.5310 0.5218 0.5149 0.5103 0.5057 0.5057 0.5057 0.5057 0.5011 0.4874 0.4782 0.4805 0.4805 0.4782 0.4759 0.4736 0.4690 0.4690 0.4690 0.4736 0.4759 0.4736 0.4736 0.4690 0.4598 0.4575 0.4667 0.4736 0.4759 0.4851 0.4966 0.5080 0.5126 0.5149 0.5218 0.5195 0.5195 0.5241 0.5264 0.5310 0.5356 0.5402 0.5494 0.5586 0.5724 0.5816 0.5839 0.5862 0.5908 0.5931 0.5862 0.5816 0.5747 0.5701 0.5655 0.5632 0.5632 0.5678 0.5747 0.5770 0.5770 0.5770 0.5770 0.5793 0.5816 0.5862 0.5908 0.5977 0.6069 0.6184 0.6299 0.6368 0.6391 0.6460 0.6529 0.6552 0.6598 0.6644 0.6713 0.6759 0.6805 0.6805 0.6782 0.6713 0.6690 0.6736 0.6713 0.6690 0.6644 0.6644 0.6575 0.6437 0.6322 0.6253 0.6161 0.6161 0.6138 0.6207 0.6322 0.6414 0.6483 0.6552 0.6621 0.6759 0.6874 0.6966 0.7034 0.7103
0.6184 0.6069 0.5908 0.5839 0.5885 0.6000 0.6046 0.6000 0.6000 0.6000 0.5954 0.5954 0.5908 0.5885 0.5839 0.5816 0.5747 0.5701 0.5701 0.5747 0.5839 0.5931 0.5954 0.5954 0.5908 0.5908 0.5908 0.5908 0.5839 0.5770 0.5724 0.5747 0.5770 0.5839 0.5977 0.6046 0.6138 0.6230 0.6276 0.6322 0.6276 0.6230 0.6207 0.6253 0.6253 0.6276 0.6299 0.6253 0.6184 0.6092 0.5977 0.5885 0.5885 0.5816 0.5747 0.5770 0.5793 0.5770 0.5793 0.5816 0.5862 0.5885 0.5862 0.5793 0.5770 0.5701 0.5609 0.5540 0.5563 0.5563 0.5586 0.5609 0.5609 0.5632 0.5655 0.5678 0.5724 0.5770 0.5793 0.5862 0.5908 0.5931 0.5977 0.6000 0.6023 0.6046 0.6046 0.6000 0.5954 0.5931 0.5862 0.5793 0.5724 0.5701 0.5701 0.5724 0.5793 0.5862 0.5954 0.6000 0.6046 0.6023 0.5931 0.5816 0.5770 0.5770 0.5770 0.5816 0.5908 0.6023 0.6115 0.6207 0.6207 0.6184 0.6069 0.5977 0.5862 0.5724 0.5609 0.5540 0.5586 0.5655 0.5747 0.5816 0.5862 0.5885 0.5816 0.5770 0.5678 0.5586 0.5517 0.5425 0.5379 0.5333 0.5264 0.5218 0.5172 0.5149 0.5126 0.5103 0.5057 0.4966 0.4874 0.4828 0.4805 0.4828 0.4805 0.4782 0.4759 0.4736 0.4690 0.4690 0.4713 0.4690 0.4644 0.4598 0.4483 0.4345 0.4345 0.4414 0.4506 0.4575 0.4644 0.4759 0.4851 0.4966 0.5011 0.5034 0.5057 0.5057 0.5103 0.5172 0.5241 0.5287 0.5333 0.5448 0.5563 0.5701 0.5793 0.5839 0.5862 0.5931 0.5931 0.5931 0.5862 0.5816 0.5770 0.5724 0.5701 0.5701 0.5724 0.5747 0.5747 0.5724 0.5747 0.5793 0.5816 0.5839 0.5885 0.5977 0.6023 0.6138 0.6276 0.6345 0.6391 0.6483 0.6552 0.6621 0.6667 0.6713 0.6782 0.6805 0.6828 0.6828 0.6782 0.6713 0.6667 0.6644 0.6713 0.6759 0.6690 0.6690 0.6690 0.6667 0.6552 0.6483 0.6437 0.6322 0.6207 0.6184 0.6230 0.6322 0.6391 0.6437 0.6483 0.6575 0.6713 0.6851 0.6943 0.7011 0.7103
0.6184 0.6069 0.5931 0.5862 0.5931 0.6023 0.6092 0.6069 0.6046 0.6023 0.5977 0.5931 0.5908 0.5908 0.5908 0.5839 0.5770 0.5747 0.5793 0.5816 0.5839 0.5908 0.5977 0.6046 0.6115 0.6092 0.6115 0.6023 0.5885 0.5770 0.5747 0.5747 0.5793 0.5862 0.5977 0.6092 0.6184 0.6253 0.6276 0.6276 0.6276 0.6230 0.6207 0.6230 0.6253 0.6276 0.6253 0.6230 0.6161 0.6069 0.5931 0.5862 0.5839 0.5816 0.5793 0.5839 0.5839 0.5862 0.5839 0.5885 0.5931 0.5931 0.5908 0.5862 0.5839 0.5816 0.5701 0.5563 0.5494 0.5517 0.5540 0.5586 0.5632 0.5701 0.5747 0.5724 0.5747 0.5793 0.5816 0.5862 0.5931 0.5954 0.5977 0.6023 0.6046 0.6069 0.6046 0.6046 0.6023 0.6000 0.5908 0.5793 0.5701 0.5701 0.5724 0.5747 0.5793 0.5885 0.6000 0.6069 0.6092 0.6092 0.6023 0.5931 0.5908 0.5862 0.5816 0.5839 0.5908 0.6023 0.6115 0.6207 0.6230 0.6138 0.6000 0.5885 0.5816 0.5678 0.5563 0.5632 0.5678 0.5770 0.5862 0.5931 0.5954 0.5931 0.5862 0.5770 0.5678 0.5586 0.5517 0.5494 0.5471 0.5402 0.5356 0.5310 0.5241 0.5172 0.5126 0.5080 0.5011 0.4943 0.4874 0.4828 0.4805 0.4805 0.4805 0.4782 0.4759 0.4736 0.4713 0.4690 0.4667 0.4644 0.4575 0.4506 0.4368 0.4253 0.4230 0.4322 0.4414 0.4483 0.4529 0.4552 0.4644 0.4782 0.4897 0.4966 0.4989 0.5057 0.5103 0.5172 0.5218 0.5264 0.5356 0.5471 0.5586 0.5678 0.5770 0.5816 0.5862 0.5931 0.5977 0.5977 0.5931 0.5885 0.5839 0.5816 0.5793 0.5793 0.5816 0.5816 0.5793 0.5770 0.5793 0.5839 0.5862 0.5908 0.5977 0.6046 0.6138 0.6276 0.6391 0.6414 0.6483 0.6529 0.6598 0.6667 0.6736 0.6782 0.6805 0.6851 0.6851 0.6805 0.6713 0.6621 0.6529 0.6529 0.6598 0.6644 0.6690 0.6736 0.6759 0.6759 0.6713 0.6621 0.6529 0.6414 0.6345 0.6299 0.6299 0.6299 0.6322 0.6391 0.6414 0.6506 0.6621 0.6782 0.6897 0.7034 0.7103
0.6207 0.6138 0.6046 0.6000 0.6023 0.6069 0.6138 0.6161 0.6092 0.6023 0.5977 0.5954 0.5908 0.5931 0.5885 0.5862 0.5816 0.5839 0.5862 0.5931 0.5954 0.5977 0.6069 0.6138 0.6161 0.6138 0.6138 0.6115 0.5954 0.5862 0.5793 0.5816 0.5839 0.5862 0.5954 0.6046 0.6138 0.6161 0.6138 0.6184 0.6184 0.6184 0.6161 0.6184 0.6207 0.6253 0.6230 0.6230 0.6207 0.6069 0.5977 0.5931 0.5885 0.5839 0.5816 0.5862 0.5931 0.5908 0.5908 0.5931 0.5931 0.5954 0.5954 0.5931 0.5908 0.5862 0.5747 0.5586 0.5563 0.5563 0.5609 0.5609 0.5632 0.5701 0.5724 0.5747 0.5747 0.5770 0.5793 0.5862 0.5885 0.5931 0.5977 0.6023 0.6069 0.6092 0.6138 0.6138 0.6115 0.6069 0.6000 0.5839 0.5747 0.5724 0.5747 0.5770 0.5839 0.5931 0.6046 0.6092 0.6138 0.6138 0.6115 0.6046 0.5977 0.5931 0.5885 0.5908 0.5977 0.6092 0.6184 0.6253 0.6253 0.6161 0.6023 0.5885 0.5747 0.5632 0.5609 0.5678 0.5793 0.5885 0.5977 0.6023 0.6046 0.6000 0.5908 0.5816 0.5724 0.5678 0.5655 0.5655 0.5586 0.5471 0.5425 0.5379 0.5287 0.5195 0.5103 0.5034 0.4966 0.4897 0.4851 0.4851 0.4828 0.4782 0.4759 0.4782 0.4759 0.4736 0.4690 0.4667 0.4690 0.4667 0.4598 0.4552 0.4437 0.4368 0.4414 0.4483 0.4529 0.4529 0.4552 0.4529 0.4552 0.4690 0.4874 0.4989 0.5034 0.5080 0.5172 0.5241 0.5264 0.5264 0.5379 0.5494 0.5563 0.5632 0.5724 0.5793 0.5862 0.5931 0.5954 0.5977 0.5954 0.5931 0.5885 0.5885 0.5885 0.5885 0.5908 0.5885 0.5839 0.5839 0.5885 0.5908 0.5908 0.5977 0.6046 0.6115 0.6207 0.6299 0.6414 0.6460 0.6529 0.6598 0.6621 0.6690 0.6713 0.6713 0.6736 0.6782 0.6805 0.6736 0.6621 0.6506 0.6414 0.6391 0.6437 0.6529 0.6644 0.6736 0.6851 0.6874 0.6851 0.6759 0.6621 0.6529 0.6460 0.6368 0.6299 0.6299 0.6322 0.6368 0.6414 0.6483 0.6644 0.6759 0.6874 0.7011 0.7126
0.6276 0.6184 0.6138 0.6092 0.6115 0.6138 0.6184 0.6230 0.6161 0.6092 0.6092 0.6000 0.5931 0.5862 0.5862 0.5816 0.5816 0.5862 0.5885 0.5931 0.6023 0.6069 0.6092 0.6115 0.6115 0.6115 0.6161 0.6161 0.6092 0.5954 0.5885 0.5862 0.5885 0.5908 0.5931 0.6000 0.6069 0.6069 0.6069 0.6092 0.6138 0.6138 0.6115 0.6138 0.6207 0.6253 0.6253 0.6207 0.6138 0.6069 0.6000 0.5954 0.5885 0.5839 0.5862 0.5885 0.5954 0.5977 0.6000 0.6000 0.6000 0.6000 0.6000 0.5954 0.5885 0.5862 0.5724 0.5632 0.5609 0.5655 0.5655 0.5678 0.5701 0.5724 0.5747 0.5724 0.5701 0.5724 0.5793 0.5839 0.5862 0.5908 0.5931 0.5954 0.6000 0.6092 0.6161 0.6161 0.6138 0.6092 0.6023 0.5908 0.5839 0.5816 0.5770 0.5770 0.5862 0.5954 0.6046 0.6115 0.6138 0.6161 0.6138 0.6138 0.6092 0.6069 0.6046 0.6069 0.6115 0.6161 0.6207 0.6230 0.6230 0.6138 0.6000 0.5839 0.5678 0.5609 0.5632 0.5770 0.5885 0.6023 0.6069 0.6092 0.6069 0.6046 0.6000 0.5862 0.5770 0.5701 0.5701 0.5701 0.5655 0.5586 0.5471 0.5379 0.5310 0.5241 0.5126 0.5034 0.4943 0.4874 0.4874 0.4874 0.4851 0.4805 0.4759 0.4782 0.4782 0.4759 0.4690 0.4621 0.4644 0.4621 0.4667 0.4690 0.4621 0.4575 0.4621 0.4644 0.4598 0.4552 0.4552 0.4529 0.4552 0.4690 0.4874 0.4989 0.5034 0.5103 0.5172 0.5241 0.5241 0.5241 0.5287 0.5425 0.5540 0.5632 0.5678 0.5770 0.5839 0.5908 0.5931 0.5931 0.5954 0.5954 0.5931 0.5908 0.5931 0.5977 0.6000 0.5977 0.5908 0.5931 0.5977 0.6000 0.5977 0.6023 0.6115 0.6161 0.6230 0.6322 0.6414 0.6483 0.6575 0.6598 0.6598 0.6598 0.6598 0.6598 0.6621 0.6667 0.6667 0.6598 0.6483 0.6368 0.6276 0.6276 0.6322 0.6414 0.6552 0.6690 0.6828 0.6920 0.6897 0.6828 0.6759 0.6667 0.6575 0.6552 0.6483 0.6391 0.6345 0.6414 0.6437 0.6506 0.6644 0.6759 0.6851 0.6989 0.7080
0.6322 0.6230 0.6207 0.6207 0.6161 0.6115 0.6184 0.6230 0.6161 0.6115 0.6069 0.6000 0.5908 0.5839 0.5816 0.5816 0.5839 0.5839 0.5862 0.5908 0.6000 0.6092 0.6115 0.6092 0.6115 0.6138 0.6184 0.6161 0.6092 0.6069 0.5977 0.5977 0.5931 0.5931 0.5931 0.6000 0.6023 0.6046 0.6092 0.6138 0.6161 0.6138 0.6115 0.6161 0.6207 0.6253 0.6253 0.6161 0.6092 0.6046 0.6023 0.5977 0.5931 0.5977 0.5977 0.5977 0.6023 0.6069 0.6092 0.6069 0.6023 0.6000 0.6000 0.5954 0.5862 0.5793 0.5678 0.5609 0.5655 0.5701 0.5724 0.5747 0.5770 0.5770 0.5770 0.5747 0.5747 0.5747 0.5816 0.5839 0.5862 0.5885 0.5908 0.5908 0.5931 0.6000 0.6115 0.6161 0.6161 0.6115 0.6092 0.6023 0.5931 0.5839 0.5793 0.5770 0.5839 0.5954 0.6023 0.6069 0.6138 0.6184 0.6207 0.6230 0.6207 0.6207 0.6207 0.6253 0.6253 0.6230 0.6184 0.6138 0.6092 0.6023 0.5885 0.5747 0.5678 0.5655 0.5724 0.5816 0.5931 0.6069 0.6138 0.6138 0.6138 0.6138 0.6115 0.6046 0.5908 0.5839 0.5793 0.5747 0.5678 0.5586 0.5471 0.5379 0.5356 0.5287 0.5172 0.5080 0.4989 0.4920 0.4966 0.4966 0.4920 0.4874 0.4851 0.4851 0.4851 0.4828 0.4759 0.4667 0.4598 0.4621 0.4690 0.4759 0.4782 0.4782 0.4759 0.4759 0.4667 0.4667 0.4621 0.4621 0.4667 0.4782 0.4897 0.5011 0.5034 0.5057 0.5080 0.5126 0.5126 0.5126 0.5218 0.5333 0.5471 0.5540 0.5586 0.5655 0.5770 0.5816 0.5862 0.5839 0.5862 0.5931 0.5931 0.5931 0.5954 0.6023 0.6046 0.6023 0.5954 0.5954 0.6000 0.6023 0.6023 0.6046 0.6069 0.6161 0.6253 0.6322 0.6414 0.6460 0.6483 0.6506 0.6506 0.6460 0.6414 0.6414 0.6437 0.6460 0.6437 0.6414 0.6322 0.6207 0.6161 0.6161 0.6230 0.6345 0.6483 0.6621 0.6759 0.6874 0.6920 0.6851 0.6782 0.6736 0.6713 0.6713 0.6644 0.6552 0.6460 0.6460 0.6483 0.6506 0.6598 0.6713 0.6782 0.6920 0.7034
0.6345 0.6322 0.6368 0.6322 0.6253 0.6253 0.6276 0.6207 0.6138 0.6069 0.6023 0.5954 0.5862 0.5816 0.5816 0.5862 0.5862 0.5862 0.5885 0.5931 0.6023 0.6138 0.6161 0.6161 0.6161 0.6207 0.6230 0.6207 0.6138 0.6092 0.6092 0.6046 0.6000 0.5908 0.5908 0.5977 0.6046 0.6115 0.6161 0.6207 0.6253 0.6299 0.6322 0.6276 0.6253 0.6230 0.6253 0.6161 0.6092 0.6069 0.6023 0.6023 0.6046 0.6092 0.6138 0.6115 0.6115 0.6161 0.6138 0.6069 0.6000 0.5977 0.5954 0.5931 0.5839 0.5747 0.5678 0.5632 0.5701 0.5770 0.5793 0.5793 0.5793 0.5816 0.5839 0.5862 0.5885 0.5885 0.5862 0.5862 0.5862 0.5885 0.5885 0.5885 0.5908 0.6000 0.6115 0.6230 0.6253 0.6230 0.6230 0.6138 0.6000 0.5908 0.5862 0.5816 0.5839 0.5931 0.6023 0.6115 0.6184 0.6230 0.6276 0.6322 0.6345 0.6345 0.6322 0.6345 0.6368 0.6322 0.6207 0.6092 0.6046 0.5977 0.5862 0.5793 0.5747 0.5793 0.5816 0.5885 0.5977 0.6092 0.6138 0.6161 0.6138 0.6115 0.6092 0.6023 0.5931 0.5862 0.5770 0.5701 0.5655 0.5540 0.5425 0.5379 0.5379 0.5333 0.5287 0.5241 0.5172 0.5195 0.5172 0.5172 0.5172 0.5126 0.5034 0.5011 0.4966 0.4920 0.4874 0.4759 0.4690 0.4667 0.4690 0.4759 0.4805 0.4805 0.4805 0.4782 0.4759 0.4736 0.4736 0.4782 0.4851 0.4897 0.4943 0.4989 0.4966 0.4943 0.4966 0.5011 0.5034 0.5080 0.5149 0.5218 0.5379 0.5494 0.5517 0.5540 0.5586 0.5655 0.5724 0.5770 0.5793 0.5862 0.5885 0.5885 0.5977 0.6046 0.6023 0.5977 0.5954 0.5954 0.5954 0.6000 0.6000 0.6000 0.6046 0.6115 0.6230 0.6322 0.6391 0.6414 0.6414 0.6437 0.6414 0.6322 0.6253 0.6230 0.6230 0.6253 0.6253 0.6253 0.6184 0.6115 0.6092 0.6115 0.6184 0.6299 0.6437 0.6552 0.6667 0.6805 0.6851 0.6851 0.6828 0.6828 0.6828 0.6759 0.6690 0.6598 0.6529 0.6460 0.6460 0.6483 0.6552 0.6644 0.6736 0.6851 0.7034
0.6437 0.6414 0.6414 0.6391 0.6322 0.6345 0.6322 0.6253 0.6161 0.6092 0.6023 0.5931 0.5839 0.5816 0.5862 0.5908 0.5908 0.5885 0.5931 0.6000 0.6069 0.6092 0.6161 0.6230 0.6276 0.6345 0.6345 0.6276 0.6184 0.6161 0.6138 0.6138 0.6092 0.5977 0.5954 0.6000 0.6092 0.6138 0.6184 0.6230 0.6345 0.6437 0.6414 0.6345 0.6253 0.6253 0.6207 0.6161 0.6115 0.6115 0.6069 0.6115 0.6184 0.6207 0.6230 0.6207 0.6161 0.6161 0.6138 0.6092 0.6023 0.5977 0.5931 0.5862 0.5816 0.5747 0.5701 0.5678 0.5701 0.5770 0.5816 0.5839 0.5839 0.5862 0.5908 0.5931 0.5977 0.5977 0.5931 0.5931 0.5931 0.5931 0.5931 0.5931 0.5954 0.6000 0.6115 0.6230 0.6276 0.6276 0.6230 0.6161 0.6069 0.6000 0.5931 0.5885 0.5885 0.5931 0.6046 0.6161 0.6253 0.6276 0.6368 0.6414 0.6437 0.6391 0.6391 0.6368 0.6368 0.6345 0.6230 0.6115 0.6069 0.6046 0.5954 0.5908 0.5931 0.5954 0.5977 0.6000 0.6046 0.6092 0.6138 0.6138 0.6115 0.6092 0.6023 0.5931 0.5862 0.5770 0.5678 0.5632 0.5563 0.5471 0.5402 0.5379 0.5402 0.5402 0.5402 0.5402 0.5356 0.5356 0.5356 0.5425 0.5448 0.5356 0.5241 0.5172 0.5126 0.5034 0.4966 0.4874 0.4782 0.4713 0.4713 0.4713 0.4736 0.4805 0.4828 0.4851 0.4851 0.4805 0.4828 0.4920 0.4943 0.4943 0.4943 0.4897 0.4874 0.4897 0.4897 0.4943 0.4966 0.5011 0.5080 0.5172 0.5310 0.5425 0.5448 0.5494 0.5540 0.5540 0.5609 0.5724 0.5770 0.5793 0.5816 0.5862 0.5908 0.5977 0.5954 0.5908 0.5885 0.5862 0.5862 0.5885 0.5908 0.5954 0.6000 0.6115 0.6230 0.6322 0.6368 0.6368 0.6368 0.6345 0.6276 0.6184 0.6138 0.6115 0.6115 0.6138 0.6161 0.6138 0.6092 0.6023 0.6046 0.6092 0.6161 0.6253 0.6391 0.6483 0.6552 0.6644 0.6759 0.6782 0.6782 0.6851 0.6851 0.6782 0.6690 0.6621 0.6552 0.6483 0.6460 0.6506 0.6575 0.6667 0.6759 0.6851 0.6943
0.6506 0.6483 0.6506 0.6437 0.6391 0.6345 0.6322 0.6276 0.6253 0.6161 0.6046 0.5954 0.5862 0.5862 0.5908 0.5954 0.5931 0.5908 0.5931 0.6023 0.6046 0.6046 0.6161 0.6253 0.6322 0.6414 0.6414 0.6368 0.6299 0.6253 0.6253 0.6253 0.6207 0.6138 0.6092 0.6092 0.6092 0.6092 0.6138 0.6253 0.6345 0.6391 0.6391 0.6345 0.6276 0.6253 0.6207 0.6184 0.6138 0.6092 0.6138 0.6207 0.6253 0.6230 0.6276 0.6230 0.6184 0.6138 0.6138 0.6069 0.6023 0.5954 0.5885 0.5816 0.5770 0.5747 0.5701 0.5678 0.5747 0.5793 0.5862 0.5885 0.5908 0.5931 0.5931 0.5954 0.6000 0.6023 0.6000 0.6023 0.6023 0.6000 0.5977 0.5954 0.5931 0.5977 0.6092 0.6207 0.6230 0.6253 0.6253 0.6207 0.6115 0.6069 0.5977 0.5931 0.5908 0.5954 0.6046 0.6161 0.6276 0.6345 0.6414 0.6460 0.6483 0.6483 0.6483 0.6460 0.6437 0.6391 0.6299 0.6253 0.6207 0.6161 0.6092 0.6069 0.6092 0.6138 0.6184 0.6184 0.6161 0.6184 0.6207 0.6184 0.6115 0.6069 0.6000 0.5885 0.5770 0.5655 0.5586 0.5540 0.5471 0.5448 0.5402 0.5402 0.5425 0.5448 0.5494 0.5494 0.5494 0.5494 0.5540 0.5586 0.5586 0.5517 0.5379 0.5287 0.5218 0.5149 0.4989 0.4897 0.4828 0.4759 0.4713 0.4667 0.4690 0.4759 0.4828 0.4920 0.4920 0.4897 0.4897 0.4943 0.4989 0.4966 0.4897 0.4828 0.4805 0.4828 0.4851 0.4897 0.4943 0.4966 0.5057 0.5126 0.5241 0.5333 0.5402 0.5471 0.5494 0.5517 0.5540 0.5609 0.5678 0.5724 0.5747 0.5793 0.5839 0.5862 0.5862 0.5839 0.5839 0.5793 0.5747 0.5770 0.5793 0.5816 0.5931 0.6069 0.6184 0.6253 0.6276 0.6253 0.6230 0.6184 0.6115 0.6092 0.6046 0.6023 0.6023 0.6023 0.6046 0.6000 0.5931 0.5954 0.6000 0.6023 0.6115 0.6230 0.6322 0.6391 0.6437 0.6483 0.6552 0.6644 0.6690 0.6759 0.6828 0.6805 0.6736 0.6667 0.6644 0.6598 0.6529 0.6552 0.6621 0.6690 0.6736 0.6759 0.6828
0.6575 0.6552 0.6506 0.6460 0.6414 0.6345 0.6299 0.6253 0.6230 0.6161 0.6069 0.6000 0.5954 0.5954 0.5954 0.5977 0.6000 0.5977 0.5977 0.6046 0.6092 0.6115 0.6207 0.6299 0.6368 0.6414 0.6460 0.6437 0.6414 0.6391 0.6368 0.6322 0.6253 0.6230 0.6230 0.6161 0.6092 0.6069 0.6184 0.6322 0.6414 0.6414 0.6391 0.6322 0.6299 0.6276 0.6253 0.6253 0.6253 0.6207 0.6253 0.6299 0.6253 0.6230 0.6207 0.6207 0.6161 0.6138 0.6069 0.6000 0.5954 0.5931 0.5885 0.5816 0.5793 0.5747 0.5701 0.5678 0.5724 0.5793 0.5885 0.5931 0.6000 0.6023 0.6046 0.6046 0.6046 0.6092 0.6092 0.6092 0.6092 0.6046 0.5977 0.5954 0.5931 0.6023 0.6092 0.6161 0.6276 0.6345 0.6345 0.6299 0.6184 0.6092 0.6023 0.5977 0.5977 0.6046 0.6138 0.6276 0.6345 0.6414 0.6483 0.6529 0.6552 0.6575 0.6598 0.6575 0.6552 0.6506 0.6460 0.6414 0.6345 0.6299 0.6230 0.6207 0.6184 0.6253 0.6322 0.6345 0.6322 0.6322 0.6322 0.6230 0.6138 0.6092 0.6000 0.5885 0.5701 0.5563 0.5517 0.5471 0.5471 0.5471 0.5471 0.5471 0.5471 0.5494 0.5540 0.5586 0.5586 0.5586 0.5632 0.5701 0.5678 0.5563 0.5448 0.5333 0.5287 0.5241 0.5126 0.4966 0.4851 0.4782 0.4713 0.4667 0.4667 0.4736 0.4828 0.4874 0.4897 0.4897 0.4874 0.4897 0.4920 0.4897 0.4828 0.4759 0.4713 0.4782 0.4828 0.4897 0.4920 0.5011 0.5057 0.5126 0.5195 0.5241 0.5310 0.5356 0.5402 0.5425 0.5471 0.5517 0.5563 0.5586 0.5609 0.5655 0.5724 0.5747 0.5747 0.5770 0.5747 0.5724 0.5678 0.5678 0.5724 0.5770 0.5862 0.6046 0.6161 0.6184 0.6207 0.6161 0.6115 0.6023 0.6046 0.6000 0.5954 0.5931 0.5885 0.5885 0.5908 0.5862 0.5839 0.5862 0.5908 0.5977 0.6046 0.6138 0.6184 0.6230 0.6276 0.6345 0.6414 0.6506 0.6598 0.6667 0.6782 0.6782 0.6736 0.6690 0.6690 0.6644 0.6598 0.6621 0.6644 0.6667 0.6713 0.6759 0.6851
0.6690 0.6621 0.6529 0.6460 0.6414 0.6322 0.6207 0.6184 0.6138 0.6069 0.6069 0.6046 0.6023 0.6023 0.6000 0.6023 0.6069 0.6092 0.6046 0.6069 0.6115 0.6161 0.6276 0.6368 0.6414 0.6483 0.6529 0.6460 0.6460 0.6414 0.6391 0.6276 0.6207 0.6230 0.6230 0.6161 0.6092 0.6138 0.6253 0.6437 0.6460 0.6460 0.6368 0.6322 0.6368 0.6368 0.6345 0.6345 0.6368 0.6345 0.6322 0.6322 0.6322 0.6230 0.6161 0.6115 0.6092 0.6046 0.6000 0.5954 0.5908 0.5885 0.5862 0.5839 0.5793 0.5770 0.5724 0.5701 0.5724 0.5770 0.5862 0.5931 0.6023 0.6115 0.6138 0.6138 0.6161 0.6230 0.6207 0.6184 0.6161 0.6115 0.6069 0.6000 0.6000 0.6046 0.6092 0.6184 0.6299 0.6391 0.6391 0.6322 0.6207 0.6115 0.6069 0.6023 0.6069 0.6115 0.6276 0.6345 0.6368 0.6483 0.6575 0.6598 0.6598 0.6598 0.6644 0.6644 0.6644 0.6598 0.6575 0.6552 0.6506 0.6437 0.6391 0.6299 0.6276 0.6322 0.6414 0.6391 0.6368 0.6368 0.6345 0.6276 0.6161 0.6069 0.5977 0.5839 0.5678 0.5540 0.5494 0.5494 0.5517 0.5563 0.5540 0.5540 0.5609 0.5632 0.5655 0.5678 0.5678 0.5655 0.5655 0.5678 0.5701 0.5655 0.5517 0.5402 0.5356 0.5310 0.5241 0.5057 0.4943 0.4897 0.4805 0.4713 0.4667 0.4713 0.4782 0.4805 0.4851 0.4874 0.4874 0.4874 0.4851 0.4828 0.4782 0.4759 0.4713 0.4759 0.4851 0.4920 0.4989 0.5057 0.5080 0.5149 0.5172 0.5218 0.5241 0.5241 0.5264 0.5333 0.5402 0.5425 0.5448 0.5471 0.5471 0.5517 0.5586 0.5632 0.5655 0.5655 0.5655 0.5609 0.5563 0.5632 0.5701 0.5793 0.5954 0.6069 0.6115 0.6138 0.6115 0.6069 0.5977 0.5954 0.5954 0.5931 0.5885 0.5816 0.5793 0.5770 0.5770 0.5770 0.5770 0.5793 0.5862 0.5954 0.6000 0.6000 0.6046 0.6138 0.6207 0.6276 0.6368 0.6437 0.6529 0.6667 0.6713 0.6713 0.6690 0.6644 0.6644 0.6644 0.6644 0.6644 0.6667 0.6690 0.6736 0.6828 0.6874
0.6759 0.6667 0.6552 0.6437 0.6391 0.6299 0.6184 0.6138 0.6092 0.6046 0.6069 0.6115 0.6069 0.6115 0.6161 0.6161 0.6161 0.6138 0.6115 0.6092 0.6115 0.6184 0.6230 0.6322 0.6414 0.6506 0.6552 0.6552 0.6552 0.6529 0.6414 0.6276 0.6207 0.6230 0.6276 0.6184 0.6161 0.6207 0.6322 0.6460 0.6506 0.6460 0.6437 0.6391 0.6437 0.6460 0.6391 0.6391 0.6391 0.6414 0.6368 0.6322 0.6322 0.6253 0.6161 0.6069 0.6046 0.5977 0.5931 0.5931 0.5885 0.5862 0.5839 0.5816 0.5793 0.5770 0.5770 0.5770 0.5770 0.5793 0.5839 0.5908 0.6000 0.6115 0.6161 0.6161 0.6207 0.6230 0.6253 0.6230 0.6207 0.6207 0.6184 0.6092 0.6046 0.6023 0.6092 0.6184 0.6299 0.6414 0.6437 0.6368 0.6299 0.6207 0.6138 0.6069 0.6092 0.6184 0.6276 0.6345 0.6368 0.6506 0.6667 0.6667 0.6667 0.6690 0.6713 0.6736 0.6713 0.6713 0.6713 0.6713 0.6667 0.6598 0.6552 0.6460 0.6368 0.6414 0.6414 0.6414 0.6414 0.6368 0.6322 0.6253 0.6161 0.6069 0.5954 0.5816 0.5632 0.5517 0.5517 0.5540 0.5609 0.5655 0.5655 0.5678 0.5724 0.5747 0.5724 0.5701 0.5655 0.5609 0.5563 0.5586 0.5609 0.5586 0.5494 0.5402 0.5333 0.5287 0.5264 0.5126 0.5034 0.4943 0.4851 0.4713 0.4621 0.4667 0.4713 0.4759 0.4782 0.4851 0.4851 0.4851 0.4828 0.4805 0.4782 0.4782 0.4805 0.4828 0.4920 0.4966 0.5011 0.5080 0.5103 0.5126 0.5103 0.5149 0.5149 0.5126 0.5172 0.5241 0.5287 0.5310 0.5333 0.5379 0.5402 0.5425 0.5471 0.5494 0.5517 0.5540 0.5517 0.5448 0.5494 0.5586 0.5701 0.5862 0.5954 0.6046 0.6046 0.6023 0.5977 0.5954 0.5908 0.5885 0.5862 0.5816 0.5770 0.5747 0.5701 0.5701 0.5724 0.5770 0.5770 0.5816 0.5862 0.5954 0.6000 0.6023 0.6092 0.6161 0.6230 0.6299 0.6368 0.6460 0.6529 0.6598 0.6644 0.6621 0.6575 0.6552 0.6552 0.6598 0.6644 0.6690 0.6713 0.6736 0.6759 0.6782 0.6851
0.6805 0.6713 0.6644 0.6506 0.6414 0.6322 0.6230 0.6161 0.6092 0.6069 0.6138 0.6230 0.6253 0.6345 0.6345 0.6299 0.6230 0.6161 0.6115 0.6138 0.6184 0.6207 0.6253 0.6299 0.6391 0.6506 0.6552 0.6575 0.6621 0.6621 0.6529 0.6391 0.6299 0.6322 0.6253 0.6184 0.6184 0.6276 0.6391 0.6483 0.6506 0.6506 0.6506 0.6529 0.6552 0.6552 0.6506 0.6437 0.6437 0.6414 0.6368 0.6299 0.6253 0.6184 0.6069 0.6046 0.6000 0.5931 0.5885 0.5908 0.5908 0.5862 0.5816 0.5793 0.5793 0.5816 0.5816 0.5793 0.5816 0.5793 0.5839 0.5885 0.5977 0.6069 0.6138 0.6161 0.6184 0.6207 0.6230 0.6253 0.6253 0.6253 0.6161 0.6092 0.6046 0.6069 0.6092 0.6184 0.6276 0.6414 0.6460 0.6460 0.6414 0.6299 0.6207 0.6138 0.6161 0.6207 0.6322 0.6414 0.6460 0.6575 0.6667 0.6690 0.6736 0.6782 0.6828 0.6828 0.6851 0.6897 0.6920 0.6874 0.6805 0.6782 0.6713 0.6644 0.6575 0.6552 0.6529 0.6483 0.6437 0.6345 0.6253 0.6207 0.6115 0.6023 0.5908 0.5770 0.5632 0.5540 0.5517 0.5586 0.5747 0.5862 0.5816 0.5839 0.5816 0.5724 0.5655 0.5609 0.5540 0.5517 0.5494 0.5494 0.5494 0.5494 0.5448 0.5356 0.5310 0.5287 0.5287 0.5264 0.5149 0.5034 0.4874 0.4736 0.4667 0.4690 0.4736 0.4782 0.4805 0.4828 0.4828 0.4805 0.4782 0.4759 0.4782 0.4874 0.4920 0.4966 0.4989 0.5011 0.5034 0.5080 0.5103 0.5057 0.5057 0.5057 0.5057 0.5057 0.5080 0.5149 0.5172 0.5218 0.5287 0.5310 0.5310 0.5333 0.5356 0.5379 0.5402 0.5402 0.5379 0.5425 0.5471 0.5586 0.5747 0.5839 0.5908 0.5908 0.5908 0.5885 0.5862 0.5816 0.5793 0.5770 0.5724 0.5678 0.5655 0.5678 0.5678 0.5724 0.5793 0.5839 0.5885 0.5908 0.5977 0.6000 0.6046 0.6092 0.6115 0.6184 0.6253 0.6345 0.6414 0.6460 0.6506 0.6506 0.6483 0.6483 0.6437 0.6414 0.6483 0.6575 0.6690 0.6759 0.6782 0.6805 0.6782 0.6759 0.6759
0.6805 0.6759 0.6644 0.6529 0.6437 0.6368 0.6253 0.6207 0.6092 0.6092 0.6184 0.6345 0.6414 0.6414 0.6368 0.6345 0.6276 0.6230 0.6161 0.6184 0.6230 0.6299 0.6322 0.6345 0.6414 0.6483 0.6529 0.6598 0.6598 0.6598 0.6575 0.6506 0.6437 0.6391 0.6299 0.6207 0.6230 0.6322 0.6391 0.6460 0.6506 0.6552 0.6598 0.6667 0.6690 0.6644 0.6598 0.6529 0.6460 0.6414 0.6345 0.6276 0.6230 0.6138 0.6023 0.5977 0.5931 0.5908 0.5885 0.5885 0.5885 0.5885 0.5839 0.5839 0.5862 0.5885 0.5862 0.5839 0.5816 0.5793 0.5816 0.5862 0.5931 0.6023 0.6092 0.6161 0.6207 0.6253 0.6253 0.6299 0.6299 0.6276 0.6184 0.6092 0.6069 0.6092 0.6092 0.6184 0.6299 0.6414 0.6506 0.6506 0.6483 0.6391 0.6276 0.6253 0.6276 0.6345 0.6414 0.6529 0.6621 0.6667 0.6713 0.6759 0.6828 0.6920 0.6920 0.6966 0.7011 0.7057 0.7057 0.7011 0.6966 0.6920 0.6874 0.6759 0.6667 0.6575 0.6483 0.6414 0.6368 0.6253 0.6161 0.6092 0.6000 0.5931 0.5816 0.5701 0.5678 0.5655 0.5678 0.5793 0.5977 0.6000 0.5954 0.5931 0.5862 0.5724 0.5609 0.5517 0.5425 0.5402 0.5402 0.5448 0.5448 0.5425 0.5379 0.5333 0.5310 0.5287 0.5310 0.5333 0.5241 0.5103 0.4920 0.4759 0.4690 0.4736 0.4759 0.4782 0.4805 0.4782 0.4782 0.4759 0.4713 0.4690 0.4759 0.4851 0.4943 0.5011 0.5034 0.5057 0.5057 0.5057 0.5057 0.5034 0.5011 0.5011 0.5011 0.5011 0.5034 0.5057 0.5126 0.5195 0.5241 0.5264 0.5241 0.5218 0.5218 0.5287 0.5287 0.5333 0.5379 0.5402 0.5448 0.5540 0.5678 0.5770 0.5770 0.5747 0.5747 0.5770 0.5747 0.5701 0.5678 0.5655 0.5632 0.5563 0.5563 0.5609 0.5724 0.5793 0.5908 0.5954 0.6000 0.6046 0.6115 0.6138 0.6115 0.6138 0.6161 0.6207 0.6253 0.6322 0.6391 0.6414 0.6414 0.6414 0.6345 0.6322 0.6299 0.6368 0.6460 0.6598 0.6713 0.6782 0.6828 0.6828 0.6828 0.6759 0.6690
0.6805 0.6736 0.6644 0.6575 0.6437 0.6368 0.6345 0.6276 0.6184 0.6115 0.6184 0.6345 0.6460 0.6414 0.6368 0.6345 0.6345 0.6322 0.6276 0.6276 0.6322 0.6345 0.6414 0.6437 0.6483 0.6483 0.6552 0.6598 0.6575 0.6575 0.6575 0.6529 0.6483 0.6414 0.6322 0.6253 0.6253 0.6322 0.6414 0.6506 0.6552 0.6621 0.6690 0.6736 0.6713 0.6644 0.6575 0.6506 0.6483 0.6414 0.6322 0.6253 0.6207 0.6115 0.6000 0.5931 0.5908 0.5908 0.5908 0.5885 0.5908 0.5908 0.5885 0.5885 0.5908 0.5931 0.5908 0.5862 0.5839 0.5816 0.5839 0.5885 0.5954 0.6000 0.6115 0.6207 0.6299 0.6345 0.6345 0.6345 0.6345 0.6322 0.6253 0.6161 0.6069 0.6092 0.6115 0.6207 0.6322 0.6437 0.6529 0.6529 0.6506 0.6437 0.6368 0.6345 0.6368 0.6460 0.6552 0.6644 0.6690 0.6759 0.6874 0.6920 0.6989 0.7034 0.7103 0.7149 0.7218 0.7241 0.7195 0.7103 0.7057 0.6989 0.6920 0.6782 0.6667 0.6529 0.6414 0.6322 0.6230 0.6161 0.6069 0.5954 0.5908 0.5839 0.5793 0.5747 0.5747 0.5839 0.5908 0.6046 0.6138 0.6184 0.6092 0.6046 0.5954 0.5724 0.5563 0.5448 0.5379 0.5356 0.5379 0.5402 0.5402 0.5379 0.5356 0.5333 0.5333 0.5356 0.5425 0.5517 0.5425 0.5241 0.5011 0.4851 0.4759 0.4736 0.4759 0.4782 0.4782 0.4759 0.4736 0.4713 0.4667 0.4644 0.4690 0.4805 0.4920 0.5011 0.5080 0.5080 0.5034 0.5034 0.5034 0.5011 0.4989 0.4966 0.4966 0.4943 0.4966 0.4966 0.5034 0.5103 0.5149 0.5172 0.5149 0.5103 0.5149 0.5195 0.5241 0.5310 0.5379 0.5425 0.5448 0.5517 0.5632 0.5678 0.5678 0.5609 0.5609 0.5632 0.5632 0.5609 0.5586 0.5540 0.5563 0.5586 0.5609 0.5678 0.5747 0.5862 0.5931 0.5977 0.6000 0.6046 0.6138 0.6138 0.6115 0.6115 0.6161 0.6207 0.6253 0.6276 0.6322 0.6322 0.6322 0.6276 0.6230 0.6207 0.6230 0.6322 0.6460 0.6598 0.6690 0.6736 0.6782 0.6805 0.6828 0.6759 0.6690
0.6736 0.6690 0.6598 0.6552 0.6460 0.6368 0.6322 0.6299 0.6230 0.6207 0.6230 0.6322 0.6460 0.6460 0.6391 0.6368 0.6391 0.6414 0.6391 0.6368 0.6345 0.6368 0.6414 0.6506 0.6529 0.6575 0.6598 0.6621 0.6621 0.6598 0.6621 0.6598 0.6575 0.6460 0.6322 0.6253 0.6276 0.6299 0.6368 0.6506 0.6621 0.6667 0.6690 0.6690 0.6690 0.6621 0.6506 0.6483 0.6460 0.6391 0.6299 0.6253 0.6184 0.6092 0.6023 0.5931 0.5885 0.5931 0.5931 0.5908 0.5931 0.5954 0.5931 0.5931 0.5954 0.5977 0.5908 0.5862 0.5839 0.5839 0.5839 0.5885 0.5931 0.6023 0.6138 0.6253 0.6345 0.6391 0.6391 0.6391 0.6368 0.6368 0.6322 0.6184 0.6115 0.6115 0.6161 0.6230 0.6345 0.6460 0.6529 0.6552 0.6529 0.6506 0.6460 0.6437 0.6529 0.6644 0.6736 0.6782 0.6828 0.6943 0.7057 0.7126 0.7195 0.7218 0.7264 0.7310 0.7356 0.7356 0.7287 0.7172 0.7103 0.7034 0.6943 0.6805 0.6621 0.6460 0.6322 0.6207 0.6138 0.6092 0.6023 0.5931 0.5885 0.5885 0.5885 0.5862 0.5862 0.6000 0.6161 0.6184 0.6276 0.6299 0.6276 0.6184 0.6023 0.5816 0.5609 0.5425 0.5402 0.5379 0.5379 0.5402 0.5425 0.5402 0.5356 0.5356 0.5379 0.5494 0.5609 0.5678 0.5586 0.5379 0.5172 0.4897 0.4736 0.4690 0.4759 0.4782 0.4782 0.4759 0.4736 0.4690 0.4667 0.4667 0.4736 0.4828 0.4897 0.4989 0.5034 0.5034 0.5011 0.5011 0.5011 0.4966 0.4920 0.4874 0.4851 0.4828 0.4828 0.4874 0.4920 0.4943 0.4966 0.5011 0.5057 0.5103 0.5149 0.5218 0.5264 0.5333 0.5402 0.5448 0.5471 0.5517 0.5586 0.5609 0.5563 0.5517 0.5494 0.5540 0.5540 0.5494 0.5448 0.5448 0.5471 0.5563 0.5655 0.5701 0.5747 0.5793 0.5862 0.5885 0.5931 0.5977 0.6000 0.6046 0.6023 0.6023 0.6046 0.6138 0.6138 0.6184 0.6230 0.6230 0.6207 0.6138 0.6138 0.6161 0.6184 0.6276 0.6414 0.6575 0.6644 0.6667 0.6713 0.6736 0.6736 0.6713 0.6621
0.6667 0.6621 0.6552 0.6506 0.6437 0.6322 0.6299 0.6276 0.6276 0.6322 0.6299 0.6368 0.6414 0.6460 0.6460 0.6483 0.6506 0.6506 0.6437 0.6391 0.6368 0.6345 0.6391 0.6460 0.6575 0.6644 0.6690 0.6713 0.6736 0.6736 0.6667 0.6621 0.6575 0.6483 0.6368 0.6299 0.6322 0.6322 0.6391 0.6529 0.6644 0.6667 0.6644 0.6667 0.6690 0.6621 0.6506 0.6460 0.6437 0.6322 0.6253 0.6184 0.6115 0.6069 0.6046 0.5977 0.5954 0.5977 0.5954 0.5954 0.5977 0.6000 0.5977 0.5977 0.5977 0.5977 0.5954 0.5862 0.5839 0.5839 0.5885 0.5908 0.5954 0.6023 0.6138 0.6253 0.6322 0.6368 0.6391 0.6414 0.6437 0.6391 0.6345 0.6230 0.6184 0.6184 0.6207 0.6253 0.6368 0.6483 0.6575 0.6621 0.6621 0.6575 0.6575 0.6621 0.6713 0.6851 0.6943 0.7011 0.7057 0.7103 0.7172 0.7310 0.7356 0.7356 0.7379 0.7379 0.7402 0.7379 0.7333 0.7264 0.7126 0.7057 0.6920 0.6759 0.6575 0.6414 0.6276 0.6207 0.6207 0.6207 0.6207 0.6138 0.6092 0.6069 0.6069 0.6069 0.6115 0.6253 0.6322 0.6368 0.6368 0.6391 0.6368 0.6253 0.6046 0.5839 0.5632 0.5494 0.5402 0.5402 0.5402 0.5448 0.5471 0.5448 0.5448 0.5494 0.5563 0.5655 0.5747 0.5747 0.5632 0.5425 0.5195 0.4989 0.4782 0.4736 0.4759 0.4805 0.4805 0.4782 0.4759 0.4759 0.4759 0.4805 0.4828 0.4851 0.4874 0.4920 0.4943 0.4966 0.5011 0.5011 0.4989 0.4897 0.4805 0.4736 0.4713 0.4736 0.4805 0.4828 0.4828 0.4828 0.4874 0.4966 0.5034 0.5103 0.5195 0.5264 0.5310 0.5379 0.5402 0.5425 0.5448 0.5494 0.5517 0.5494 0.5471 0.5425 0.5425 0.5448 0.5448 0.5402 0.5379 0.5379 0.5471 0.5540 0.5632 0.5701 0.5724 0.5747 0.5770 0.5816 0.5839 0.5885 0.5908 0.5931 0.5931 0.5954 0.5954 0.5977 0.6000 0.6046 0.6092 0.6092 0.6069 0.6092 0.6138 0.6184 0.6253 0.6322 0.6460 0.6552 0.6644 0.6690 0.6690 0.6690 0.6667 0.6621 0.6552
0.6667 0.6621 0.6529 0.6460 0.6368 0.6322 0.6299 0.6322 0.6299 0.6322 0.6345 0.6391 0.6437 0.6483 0.6552 0.6575 0.6598 0.6552 0.6460 0.6414 0.6414 0.6414 0.6437 0.6506 0.6598 0.6759 0.6759 0.6782 0.6828 0.6805 0.6713 0.6621 0.6529 0.6483 0.6414 0.6345 0.6345 0.6391 0.6437 0.6575 0.6644 0.6644 0.6621 0.6575 0.6621 0.6552 0.6437 0.6345 0.6345 0.6322 0.6207 0.6115 0.6069 0.6046 0.6023 0.6000 0.6023 0.6000 0.6023 0.6023 0.6023 0.6023 0.6000 0.6000 0.5977 0.5931 0.5908 0.5885 0.5862 0.5885 0.5931 0.5977 0.6023 0.6069 0.6138 0.6253 0.6299 0.6322 0.6345 0.6437 0.6483 0.6437 0.6345 0.6253 0.6230 0.6230 0.6253 0.6299 0.6391 0.6483 0.6575 0.6667 0.6713 0.6759 0.6736 0.6782 0.6897 0.6989 0.7080 0.7149 0.7195 0.7218 0.7310 0.7425 0.7517 0.7540 0.7494 0.7471 0.7425 0.7379 0.7310 0.7195 0.7080 0.6989 0.6828 0.6690 0.6552 0.6368 0.6299 0.6345 0.6437 0.6483 0.6460 0.6414 0.6345 0.6299 0.6345 0.6368 0.6345 0.6391 0.6483 0.6529 0.6529 0.6506 0.6414 0.6253 0.6046 0.5885 0.5747 0.5540 0.5425 0.5425 0.5425 0.5448 0.5494 0.5540 0.5609 0.5655 0.5724 0.5770 0.5770 0.5747 0.5586 0.5356 0.5195 0.5011 0.4851 0.4736 0.4736 0.4782 0.4828 0.4828 0.4851 0.4897 0.4897 0.4897 0.4897 0.4874 0.4874 0.4897 0.4920 0.4966 0.4989 0.4966 0.4874 0.4759 0.4759 0.4736 0.4713 0.4736 0.4782 0.4805 0.4805 0.4851 0.4943 0.5011 0.5080 0.5149 0.5195 0.5241 0.5287 0.5379 0.5402 0.5425 0.5425 0.5425 0.5402 0.5402 0.5379 0.5356 0.5356 0.5379 0.5356 0.5356 0.5356 0.5402 0.5494 0.5586 0.5632 0.5678 0.5724 0.5724 0.5724 0.5747 0.5770 0.5747 0.5747 0.5816 0.5839 0.5839 0.5862 0.5885 0.5931 0.5954 0.5977 0.6000 0.6069 0.6138 0.6253 0.6345 0.6391 0.6460 0.6529 0.6598 0.6690 0.6690 0.6690 0.6598 0.6552 0.6506 0.6460
0.6575 0.6552 0.6552 0.6483 0.6437 0.6345 0.6345 0.6322 0.6322 0.6322 0.6345 0.6391 0.6437 0.6506 0.6575 0.6621 0.6621 0.6598 0.6529 0.6460 0.6460 0.6483 0.6552 0.6621 0.6713 0.6782 0.6805 0.6782 0.6828 0.6828 0.6736 0.6621 0.6552 0.6529 0.6506 0.6460 0.6391 0.6368 0.6460 0.6552 0.6621 0.6621 0.6575 0.6529 0.6506 0.6460 0.6345 0.6253 0.6253 0.6276 0.6184 0.6092 0.6046 0.6046 0.6046 0.6046 0.6046 0.6046 0.6046 0.6046 0.6046 0.6023 0.6023 0.6000 0.5954 0.5908 0.5885 0.5908 0.5908 0.5931 0.5977 0.6000 0.6023 0.6069 0.6184 0.6207 0.6253 0.6299 0.6345 0.6437 0.6529 0.6483 0.6368 0.6276 0.6276 0.6253 0.6276 0.6345 0.6414 0.6483 0.6575 0.6667 0.6805 0.6851 0.6874 0.6920 0.7034 0.7126 0.7172 0.7218 0.7287 0.7333 0.7425 0.7517 0.7586 0.7563 0.7540 0.7471 0.7425 0.7356 0.7287 0.7126 0.6966 0.6805 0.6621 0.6552 0.6483 0.6437 0.6437 0.6552 0.6667 0.6690 0.6644 0.6644 0.6644 0.6621 0.6552 0.6506 0.6552 0.6598 0.6667 0.6759 0.6759 0.6621 0.6460 0.6322 0.6138 0.5931 0.5793 0.5586 0.5448 0.5402 0.5402 0.5402 0.5471 0.5563 0.5632 0.5678 0.5724 0.5770 0.5770 0.5632 0.5494 0.5356 0.5195 0.5034 0.4897 0.4805 0.4759 0.4759 0.4805 0.4897 0.4989 0.4989 0.4989 0.4966 0.4943 0.4920 0.4920 0.4920 0.4943 0.4943 0.4920 0.4851 0.4759 0.4759 0.4759 0.4736 0.4736 0.4736 0.4782 0.4805 0.4828 0.4874 0.4966 0.5034 0.5103 0.5149 0.5149 0.5126 0.5218 0.5310 0.5356 0.5356 0.5356 0.5333 0.5333 0.5333 0.5356 0.5356 0.5356 0.5356 0.5356 0.5356 0.5379 0.5402 0.5471 0.5540 0.5586 0.5632 0.5678 0.5678 0.5678 0.5655 0.5655 0.5655 0.5655 0.5701 0.5747 0.5747 0.5770 0.5839 0.5862 0.5908 0.5931 0.6046 0.6115 0.6207 0.6368 0.6483 0.6506 0.6552 0.6598 0.6667 0.6690 0.6644 0.6552 0.6460 0.6391 0.6368 0.6322
0.6483 0.6506 0.6506 0.6529 0.6506 0.6483 0.6414 0.6368 0.6345 0.6391 0.6391 0.6414 0.6483 0.6598 0.6667 0.6667 0.6690 0.6667 0.6575 0.6506 0.6460 0.6460 0.6552 0.6644 0.6713 0.6805 0.6759 0.6759 0.6782 0.6782 0.6713 0.6621 0.6598 0.6575 0.6598 0.6552 0.6483 0.6414 0.6460 0.6529 0.6575 0.6598 0.6529 0.6506 0.6483 0.6437 0.6345 0.6230 0.6207 0.6184 0.6115 0.6092 0.6069 0.6115 0.6115 0.6138 0.6115 0.6092 0.6069 0.6069 0.6069 0.6046 0.6046 0.6023 0.6000 0.5954 0.5931 0.5954 0.5954 0.5977 0.5977 0.6000 0.6023 0.6092 0.6138 0.6184 0.6184 0.6299 0.6414 0.6483 0.6529 0.6529 0.6483 0.6414 0.6345 0.6299 0.6299 0.6345 0.6414 0.6460 0.6506 0.6667 0.6805 0.6897 0.6966 0.7034 0.7103 0.7172 0.7218 0.7310 0.7448 0.7494 0.7586 0.7586 0.7586 0.7586 0.7494 0.7448 0.7379 0.7287 0.7172 0.7057 0.6874 0.6690 0.6552 0.6506 0.6575 0.6667 0.6759 0.6828 0.6897 0.6943 0.6920 0.6897 0.6897 0.6851 0.6736 0.6713 0.6736 0.6759 0.6805 0.6851 0.6805 0.6690 0.6552 0.6414 0.6230 0.6000 0.5839 0.5678 0.5517 0.5425 0.5402 0.5402 0.5425 0.5494 0.5563 0.5586 0.5632 0.5678 0.5609 0.5517 0.5425 0.5333 0.5218 0.5149 0.5011 0.4943 0.4874 0.4805 0.4828 0.4966 0.5011 0.5011 0.4989 0.5011 0.4989 0.4966 0.4966 0.4966 0.4966 0.4920 0.4874 0.4782 0.4759 0.4736 0.4713 0.4690 0.4713 0.4759 0.4805 0.4828 0.4805 0.4805 0.4874 0.4966 0.4989 0.5034 0.5057 0.5103 0.5149 0.5218 0.5264 0.5264 0.5287 0.5310 0.5310 0.5333 0.5333 0.5356 0.5379 0.5402 0.5402 0.5402 0.5402 0.5379 0.5402 0.5471 0.5540 0.5586 0.5632 0.5632 0.5586 0.5586 0.5586 0.5586 0.5586 0.5609 0.5655 0.5701 0.5770 0.5839 0.5885 0.5908 0.6023 0.6115 0.6161 0.6299 0.6437 0.6529 0.6552 0.6575 0.6598 0.6621 0.6598 0.6552 0.6506 0.6414 0.6368 0.6322 0.6276
0.6460 0.6483 0.6529 0.6552 0.6575 0.6598 0.6575 0.6483 0.6483 0.6483 0.6460 0.6460 0.6575 0.6690 0.6713 0.6713 0.6713 0.6736 0.6667 0.6575 0.6529 0.6529 0.6598 0.6690 0.6782 0.6828 0.6897 0.6874 0.6897 0.6782 0.6736 0.6759 0.6713 0.6667 0.6644 0.6621 0.6552 0.6506 0.6460 0.6506 0.6575 0.6575 0.6575 0.6529 0.6483 0.6437 0.6368 0.6253 0.6161 0.6115 0.6115 0.6115 0.6161 0.6207 0.6184 0.6184 0.6161 0.6115 0.6115 0.6092 0.6092 0.6092 0.6069 0.6046 0.6023 0.6023 0.6000 0.5977 0.5977 0.6000 0.6023 0.6023 0.6046 0.6115 0.6184 0.6230 0.6253 0.6322 0.6437 0.6506 0.6552 0.6598 0.6575 0.6506 0.6391 0.6299 0.6299 0.6368 0.6414 0.6460 0.6575 0.6690 0.6782 0.6920 0.7034 0.7126 0.7195 0.7241 0.7264 0.7402 0.7517 0.7563 0.7586 0.7609 0.7586 0.7540 0.7494 0.7402 0.7310 0.7195 0.7103 0.6966 0.6782 0.6667 0.6644 0.6690 0.6828 0.6920 0.6989 0.7057 0.7126 0.7149 0.7126 0.7080 0.7034 0.6989 0.6920 0.6874 0.6851 0.6897 0.6897 0.6874 0.6828 0.6736 0.6598 0.6483 0.6299 0.6092 0.5954 0.5793 0.5586 0.5448 0.5425 0.5425 0.5425 0.5448 0.5471 0.5517 0.5563 0.5563 0.5517 0.5425 0.5379 0.5333 0.5310 0.5241 0.5172 0.5103 0.5057 0.4989 0.4966 0.4989 0.4989 0.4989 0.5034 0.5034 0.5011 0.4989 0.4943 0.4943 0.4897 0.4851 0.4782 0.4759 0.4759 0.4713 0.4690 0.4690 0.4759 0.4805 0.4828 0.4805 0.4828 0.4805 0.4851 0.4897 0.4920 0.4989 0.5034 0.5080 0.5103 0.5172 0.5241 0.5264 0.5264 0.5287 0.5333 0.5356 0.5379 0.5425 0.5448 0.5448 0.5471 0.5471 0.5448 0.5425 0.5448 0.5517 0.5540 0.5563 0.5586 0.5586 0.5563 0.5563 0.5563 0.5540 0.5540 0.5586 0.5655 0.5678 0.5770 0.5862 0.5908 0.5954 0.6000 0.6138 0.6230 0.6299 0.6414 0.6460 0.6460 0.6483 0.6460 0.6460 0.6414 0.6437 0.6437 0.6414 0.6345 0.6276 0.6230
0.6414 0.6483 0.6552 0.6575 0.6598 0.6644 0.6667 0.6598 0.6529 0.6575 0.6575 0.6598 0.6644 0.6736 0.6805 0.6759 0.6805 0.6828 0.6805 0.6713 0.6690 0.6713 0.6759 0.6851 0.6874 0.6920 0.6966 0.7034 0.6966 0.6874 0.6805 0.6851 0.6828 0.6736 0.6690 0.6644 0.6644 0.6575 0.6529 0.6529 0.6575 0.6598 0.6552 0.6506 0.6460 0.6437 0.6345 0.6253 0.6184 0.6161 0.6161 0.6184 0.6230 0.6253 0.6230 0.6207 0.6207 0.6161 0.6161 0.6161 0.6138 0.6138 0.6092 0.6069 0.6069 0.6046 0.6023 0.6023 0.6000 0.6023 0.6046 0.6069 0.6092 0.6161 0.6253 0.6276 0.6253 0.6322 0.6414 0.6506 0.6575 0.6644 0.6644 0.6552 0.6437 0.6322 0.6276 0.6322 0.6414 0.6506 0.6621 0.6736 0.6851 0.6943 0.7103 0.7195 0.7241 0.7241 0.7310 0.7402 0.7494 0.7540 0.7563 0.7563 0.7540 0.7494 0.7448 0.7356 0.7264 0.7172 0.7057 0.6943 0.6874 0.6874 0.6851 0.6943 0.7011 0.7057 0.7126 0.7172 0.7241 0.7287 0.7241 0.7218 0.7195 0.7149 0.7126 0.7034 0.7034 0.7034 0.7034 0.6966 0.6874 0.6736 0.6621 0.6483 0.6299 0.6138 0.6023 0.5839 0.5632 0.5494 0.5448 0.5425 0.5425 0.5448 0.5471 0.5494 0.5517 0.5494 0.5448 0.5448 0.5471 0.5494 0.5494 0.5402 0.5310 0.5264 0.5218 0.5149 0.5126 0.5126 0.5057 0.5034 0.5034 0.5034 0.4989 0.4943 0.4920 0.4874 0.4828 0.4759 0.4759 0.4759 0.4782 0.4736 0.4713 0.4713 0.4759 0.4782 0.4759 0.4759 0.4782 0.4851 0.4897 0.4920 0.4966 0.5011 0.5080 0.5126 0.5195 0.5241 0.5241 0.5264 0.5264 0.5287 0.5356 0.5425 0.5471 0.5494 0.5494 0.5494 0.5517 0.5540 0.5563 0.5563 0.5586 0.5586 0.5563 0.5563 0.5563 0.5563 0.5563 0.5563 0.5563 0.5540 0.5563 0.5609 0.5632 0.5678 0.5747 0.5839 0.5908 0.5954 0.6000 0.6069 0.6161 0.6230 0.6299 0.6299 0.6299 0.6322 0.6322 0.6299 0.6253 0.6253 0.6299 0.6345 0.6299 0.6253 0.6184
0.6414 0.6506 0.6575 0.6575 0.6575 0.6621 0.6690 0.6644 0.6621 0.6644 0.6667 0.6690 0.6782 0.6828 0.6851 0.6851 0.6897 0.6920 0.6920 0.6851 0.6828 0.6874 0.6874 0.6943 0.6989 0.6989 0.7103 0.7103 0.7057 0.6989 0.6943 0.6943 0.6943 0.6874 0.6782 0.6713 0.6667 0.6667 0.6598 0.6575 0.6598 0.6644 0.6598 0.6506 0.6460 0.6437 0.6345 0.6253 0.6230 0.6207 0.6230 0.6230 0.6276 0.6253 0.6230 0.6253 0.6230 0.6207 0.6184 0.6184 0.6184 0.6138 0.6115 0.6115 0.6092 0.6092 0.6069 0.6046 0.6046 0.6069 0.6092 0.6092 0.6092 0.6138 0.6207 0.6207 0.6230 0.6299 0.6414 0.6529 0.6598 0.6667 0.6690 0.6667 0.6575 0.6414 0.6322 0.6299 0.6437 0.6529 0.6644 0.6759 0.6897 0.7034 0.7172 0.7241 0.7241 0.7287 0.7333 0.7425 0.7494 0.7517 0.7540 0.7540 0.7517 0.7448 0.7379 0.7310 0.7241 0.7172 0.7080 0.7034 0.7011 0.7034 0.7080 0.7126 0.7172 0.7195 0.7218 0.7287 0.7333 0.7356 0.7356 0.7310 0.7310 0.7333 0.7333 0.7241 0.7218 0.7195 0.7126 0.7011 0.6874 0.6736 0.6621 0.6506 0.6322 0.6184 0.6046 0.5862 0.5655 0.5540 0.5471 0.5425 0.5425 0.5448 0.5471 0.5517 0.5517 0.5494 0.5494 0.5563 0.5655 0.5678 0.5701 0.5586 0.5402 0.5310 0.5287 0.5264 0.5287 0.5264 0.5172 0.5080 0.5011 0.4989 0.4989 0.4943 0.4897 0.4874 0.4805 0.4759 0.4736 0.4759 0.4759 0.4736 0.4713 0.4713 0.4736 0.4736 0.4690 0.4667 0.4713 0.4782 0.4874 0.4966 0.5011 0.5080 0.5103 0.5172 0.5264 0.5264 0.5264 0.5241 0.5264 0.5333 0.5425 0.5494 0.5517 0.5540 0.5540 0.5540 0.5563 0.5586 0.5586 0.5609 0.5586 0.5540 0.5517 0.5494 0.5494 0.5517 0.5540 0.5563 0.5540 0.5540 0.5540 0.5540 0.5586 0.5632 0.5724 0.5816 0.5885 0.5931 0.5954 0.5977 0.6023 0.6069 0.6115 0.6115 0.6138 0.6161 0.6161 0.6161 0.6161 0.6138 0.6184 0.6207 0.6230 0.6207 0.6161
0.6483 0.6575 0.6644 0.6621 0.6598 0.6644 0.6736 0.6736 0.6690 0.6690 0.6736 0.6805 0.6897 0.6897 0.6897 0.6920 0.6989 0.7034 0.7034 0.7011 0.7011 0.6966 0.6920 0.6989 0.7057 0.7126 0.7172 0.7172 0.7172 0.7195 0.7080 0.7034 0.7057 0.7011 0.6920 0.6736 0.6667 0.6667 0.6690 0.6644 0.6667 0.6713 0.6667 0.6552 0.6483 0.6437 0.6368 0.6322 0.6276 0.6299 0.6276 0.6276 0.6276 0.6253 0.6230 0.6253 0.6253 0.6207 0.6184 0.6184 0.6184 0.6184 0.6161 0.6161 0.6161 0.6138 0.6115 0.6115 0.6115 0.6092 0.6092 0.6115 0.6092 0.6115 0.6138 0.6161 0.6207 0.6299 0.6414 0.6529 0.6621 0.6690 0.6759 0.6759 0.6644 0.6529 0.6414 0.6368 0.6437 0.6552 0.6644 0.6782 0.6920 0.7034 0.7172 0.7264 0.7287 0.7333 0.7379 0.7425 0.7471 0.7494 0.7517 0.7517 0.7494 0.7402 0.7310 0.7264 0.7218 0.7149 0.7149 0.7149 0.7172 0.7172 0.7195 0.7241 0.7287 0.7333 0.7356 0.7402 0.7425 0.7425 0.7379 0.7356 0.7379 0.7333 0.7379 0.7310 0.7218 0.7172 0.7103 0.7011 0.6874 0.6759 0.6644 0.6506 0.6322 0.6184 0.6046 0.5885 0.5724 0.5563 0.5471 0.5448 0.5425 0.5425 0.5517 0.5563 0.5540 0.5517 0.5540 0.5632 0.5747 0.5839 0.5908 0.5747 0.5540 0.5448 0.5379 0.5402 0.5425 0.5425 0.5356 0.5103 0.5103 0.5080 0.5034 0.4966 0.4897 0.4851 0.4805 0.4782 0.4736 0.4713 0.4759 0.4736 0.4736 0.4736 0.4713 0.4713 0.4690 0.4667 0.4736 0.4851 0.4943 0.4966 0.4966 0.5034 0.5103 0.5218 0.5264 0.5264 0.5218 0.5241 0.5310 0.5402 0.5448 0.5471 0.5471 0.5494 0.5540 0.5540 0.5540 0.5540 0.5563 0.5540 0.5517 0.5471 0.5448 0.5425 0.5448 0.5494 0.5517 0.5517 0.5517 0.5540 0.5563 0.5586 0.5586 0.5655 0.5701 0.5747 0.5816 0.5862 0.5908 0.5931 0.5954 0.5954 0.5977 0.6000 0.6000 0.6000 0.6046 0.6092 0.6115 0.6138 0.6115 0.6138 0.6161 0.6161 0.6115
0.6483 0.6575 0.6644 0.6667 0.6713 0.6805 0.6920 0.6920 0.6851 0.6805 0.6828 0.6874 0.6920 0.6920 0.6920 0.7011 0.7126 0.7195 0.7241 0.7195 0.7149 0.7057 0.7057 0.7149 0.7195 0.7218 0.7287 0.7379 0.7356 0.7333 0.7241 0.7126 0.7126 0.7103 0.7011 0.6851 0.6759 0.6713 0.6713 0.6736 0.6736 0.6782 0.6690 0.6575 0.6506 0.6460 0.6391 0.6368 0.6368 0.6368 0.6345 0.6322 0.6299 0.6299 0.6276 0.6276 0.6276 0.6253 0.6230 0.6207 0.6207 0.6230 0.6230 0.6207 0.6184 0.6184 0.6184 0.6161 0.6161 0.6138 0.6138 0.6184 0.6184 0.6207 0.6230 0.6253 0.6276 0.6368 0.6437 0.6552 0.6690 0.6759 0.6805 0.6782 0.6713 0.6598 0.6506 0.6437 0.6460 0.6506 0.6598 0.6736 0.6874 0.7034 0.7126 0.7195 0.7264 0.7333 0.7379 0.7402 0.7425 0.7448 0.7494 0.7517 0.7448 0.7333 0.7264 0.7241 0.7218 0.7195 0.7218 0.7287 0.7310 0.7310 0.7310 0.7356 0.7402 0.7425 0.7425 0.7494 0.7517 0.7494 0.7448 0.7425 0.7402 0.7379 0.7379 0.7379 0.7287 0.7172 0.7103 0.6989 0.6851 0.6736 0.6598 0.6460 0.6276 0.6115 0.5977 0.5908 0.5793 0.5632 0.5517 0.5471 0.5471 0.5494 0.5563 0.5609 0.5563 0.5517 0.5563 0.5655 0.5793 0.5862 0.5885 0.5862 0.5747 0.5586 0.5494 0.5448 0.5471 0.5494 0.5333 0.5195 0.5195 0.5264 0.5103 0.4943 0.4874 0.4828 0.4805 0.4782 0.4736 0.4736 0.4736 0.4759 0.4759 0.4736 0.4736 0.4713 0.4667 0.4644 0.4690 0.4759 0.4828 0.4851 0.4897 0.4966 0.5080 0.5172 0.5218 0.5195 0.5218 0.5241 0.5264 0.5310 0.5356 0.5379 0.5379 0.5402 0.5471 0.5517 0.5517 0.5494 0.5448 0.5425 0.5356 0.5356 0.5379 0.5402 0.5402 0.5448 0.5448 0.5448 0.5471 0.5517 0.5586 0.5609 0.5632 0.5655 0.5678 0.5724 0.5747 0.5770 0.5793 0.5839 0.5839 0.5816 0.5816 0.5885 0.5931 0.5954 0.5954 0.6046 0.6115 0.6092 0.6115 0.6115 0.6115 0.6092 0.6092
0.6575 0.6575 0.6667 0.6759 0.6805 0.6966 0.7057 0.7034 0.6989 0.6897 0.6851 0.6920 0.6966 0.7034 0.7057 0.7126 0.7195 0.7333 0.7356 0.7333 0.7310 0.7241 0.7241 0.7333 0.7356 0.7356 0.7402 0.7448 0.7471 0.7448 0.7356 0.7218 0.7126 0.7103 0.7080 0.7011 0.6897 0.6828 0.6782 0.6828 0.6897 0.6851 0.6759 0.6621 0.6506 0.6460 0.6460 0.6460 0.6460 0.6437 0.6414 0.6391 0.6414 0.6414 0.6368 0.6322 0.6322 0.6322 0.6276 0.6230 0.6230 0.6253 0.6253 0.6253 0.6230 0.6207 0.6207 0.6184 0.6184 0.6184 0.6230 0.6276 0.6322 0.6322 0.6322 0.6345 0.6368 0.6414 0.6506 0.6598 0.6667 0.6759 0.6805 0.6828 0.6805 0.6690 0.6575 0.6529 0.6460 0.6460 0.6552 0.6690 0.6805 0.6966 0.7103 0.7149 0.7241 0.7356 0.7402 0.7448 0.7448 0.7448 0.7494 0.7471 0.7402 0.7287 0.7218 0.7218 0.7241 0.7264 0.7310 0.7356 0.7402 0.7448 0.7471 0.7494 0.7540 0.7517 0.7563 0.7609 0.7609 0.7586 0.7517 0.7494 0.7471 0.7471 0.7471 0.7448 0.7356 0.7172 0.7057 0.6920 0.6782 0.6667 0.6529 0.6414 0.6253 0.6069 0.5977 0.5885 0.5839 0.5678 0.5540 0.5494 0.5517 0.5586 0.5655 0.5724 0.5701 0.5655 0.5678 0.5747 0.5885 0.5908 0.5908 0.5954 0.5862 0.5747 0.5586 0.5494 0.5494 0.5448 0.5402 0.5264 0.5264 0.5126 0.4989 0.4851 0.4805 0.4782 0.4782 0.4759 0.4736 0.4736 0.4736 0.4736 0.4736 0.4736 0.4736 0.4713 0.4667 0.4644 0.4644 0.4690 0.4736 0.4759 0.4805 0.4874 0.4966 0.5034 0.5080 0.5126 0.5149 0.5172 0.5172 0.5195 0.5241 0.5287 0.5333 0.5379 0.5448 0.5494 0.5471 0.5425 0.5379 0.5333 0.5287 0.5287 0.5333 0.5356 0.5379 0.5402 0.5448 0.5471 0.5471 0.5540 0.5586 0.5609 0.5655 0.5655 0.5678 0.5678 0.5701 0.5678 0.5701 0.5724 0.5724 0.5724 0.5747 0.5793 0.5862 0.5908 0.5977 0.6046 0.6069 0.6069 0.6069 0.6069 0.6046 0.6023 0.6023
0.6621 0.6713 0.6782 0.6851 0.6920 0.6989 0.7103 0.7126 0.7103 0.7011 0.6943 0.6943 0.7057 0.7126 0.7241 0.7310 0.7379 0.7425 0.7471 0.7471 0.7425 0.7425 0.7425 0.7517 0.7563 0.7540 0.7540 0.7540 0.7563 0.7517 0.7448 0.7333 0.7264 0.7195 0.7149 0.7103 0.7034 0.6943 0.6920 0.6943 0.6966 0.6943 0.6828 0.6713 0.6621 0.6552 0.6552 0.6552 0.6552 0.6506 0.6460 0.6460 0.6506 0.6506 0.6483 0.6437 0.6414 0.6368 0.6322 0.6276 0.6253 0.6276 0.6276 0.6276 0.6276 0.6253 0.6276 0.6253 0.6230 0.6253 0.6322 0.6391 0.6345 0.6322 0.6322 0.6368 0.6368 0.6414 0.6506 0.6598 0.6713 0.6736 0.6828 0.6897 0.6897 0.6828 0.6759 0.6621 0.6529 0.6483 0.6529 0.6621 0.6736 0.6874 0.7011 0.7103 0.7195 0.7310 0.7425 0.7471 0.7471 0.7494 0.7471 0.7448 0.7356 0.7241 0.7195 0.7195 0.7264 0.7333 0.7402 0.7448 0.7471 0.7540 0.7586 0.7609 0.7609 0.7632 0.7632 0.7655 0.7655 0.7632 0.7563 0.7540 0.7540 0.7517 0.7471 0.7425 0.7287 0.7149 0.6989 0.6851 0.6736 0.6598 0.6506 0.6345 0.6184 0.6069 0.5931 0.5816 0.5724 0.5609 0.5494 0.5448 0.5494 0.5609 0.5701 0.5816 0.5839 0.5862 0.5862 0.5931 0.5954 0.5931 0.5931 0.5908 0.5885 0.5724 0.5586 0.5494 0.5448 0.5402 0.5356 0.5264 0.5149 0.5034 0.4897 0.4851 0.4851 0.4851 0.4805 0.4759 0.4782 0.4782 0.4759 0.4736 0.4759 0.4759 0.4782 0.4759 0.4713 0.4690 0.4690 0.4713 0.4667 0.4690 0.4736 0.4782 0.4851 0.4897 0.4989 0.5057 0.5149 0.5172 0.5218 0.5218 0.5241 0.5287 0.5356 0.5425 0.5471 0.5471 0.5448 0.5356 0.5287 0.5264 0.5264 0.5287 0.5333 0.5379 0.5402 0.5448 0.5517 0.5540 0.5540 0.5563 0.5586 0.5609 0.5632 0.5632 0.5632 0.5632 0.5632 0.5632 0.5609 0.5609 0.5632 0.5655 0.5701 0.5770 0.5839 0.5885 0.5977 0.6023 0.6046 0.6046 0.6046 0.6023 0.5977 0.6000 0.5977
0.6805 0.6897 0.6989 0.7034 0.7034 0.7080 0.7172 0.7241 0.7241 0.7172 0.7103 0.7126 0.7103 0.7195 0.7379 0.7517 0.7586 0.7655 0.7701 0.7701 0.7655 0.7655 0.7632 0.7701 0.7724 0.7724 0.7747 0.7747 0.7724 0.7655 0.7563 0.7494 0.7448 0.7379 0.7241 0.7195 0.7149 0.7149 0.7126 0.7057 0.7034 0.6966 0.6897 0.6828 0.6736 0.6690 0.6598 0.6575 0.6575 0.6552 0.6529 0.6529 0.6529 0.6552 0.6552 0.6529 0.6506 0.6460 0.6391 0.6322 0.6299 0.6299 0.6276 0.6276 0.6322 0.6345 0.6322 0.6299 0.6276 0.6299 0.6414 0.6437 0.6414 0.6391 0.6414 0.6414 0.6414 0.6414 0.6483 0.6575 0.6690 0.6805 0.6920 0.6989 0.6989 0.6920 0.6851 0.6736 0.6598 0.6483 0.6506 0.6598 0.6667 0.6782 0.6897 0.7034 0.7149 0.7333 0.7425 0.7471 0.7471 0.7494 0.7448 0.7402 0.7379 0.7333 0.7287 0.7287 0.7356 0.7471 0.7517 0.7517 0.7586 0.7632 0.7678 0.7678 0.7678 0.7701 0.7701 0.7678 0.7678 0.7655 0.7632 0.7586 0.7540 0.7494 0.7448 0.7356 0.7218 0.7057 0.6897 0.6736 0.6621 0.6506 0.6391 0.6184 0.6115 0.6023 0.5885 0.5770 0.5655 0.5494 0.5425 0.5402 0.5494 0.5655 0.5862 0.5977 0.6069 0.6092 0.6092 0.6069 0.6023 0.5954 0.5931 0.5954 0.5931 0.5793 0.5609 0.5517 0.5471 0.5448 0.5379 0.5310 0.5195 0.5057 0.4966 0.4943 0.4943 0.4943 0.4874 0.4851 0.4874 0.4874 0.4805 0.4759 0.4759 0.4805 0.4828 0.4782 0.4759 0.4759 0.4805 0.4782 0.4759 0.4736 0.4736 0.4782 0.4828 0.4920 0.5034 0.5080 0.5126 0.5195 0.5264 0.5287 0.5287 0.5333 0.5379 0.5425 0.5425 0.5448 0.5425 0.5310 0.5241 0.5218 0.5264 0.5287 0.5333 0.5356 0.5402 0.5471 0.5517 0.5517 0.5540 0.5563 0.5586 0.5586 0.5586 0.5563 0.5563 0.5540 0.5540 0.5563 0.5540 0.5563 0.5586 0.5655 0.5724 0.5793 0.5839 0.5885 0.5931 0.5977 0.5977 0.6000 0.6000 0.5954 0.5908 0.5908 0.5908
0.6943 0.7103 0.7172 0.7172 0.7149 0.7241 0.7310 0.7379 0.7425 0.7402 0.7356 0.7264 0.7264 0.7333 0.7471 0.7609 0.7724 0.7839 0.7931 0.7908 0.7908 0.7931 0.7931 0.7885 0.7931 0.7908 0.7977 0.7977 0.7931 0.7862 0.7747 0.7655 0.7586 0.7517 0.7425 0.7356 0.7287 0.7310 0.7287 0.7149 0.7057 0.6966 0.6897 0.6851 0.6828 0.6782 0.6690 0.6598 0.6598 0.6644 0.6598 0.6575 0.6575 0.6598 0.6621 0.6598 0.6552 0.6483 0.6414 0.6345 0.6322 0.6299 0.6276 0.6299 0.6345 0.6414 0.6437 0.6391 0.6368 0.6414 0.6460 0.6483 0.6460 0.6483 0.6529 0.6506 0.6483 0.6460 0.6552 0.6644 0.6713 0.6874 0.6966 0.7034 0.7057 0.7057 0.6943 0.6805 0.6690 0.6575 0.6552 0.6552 0.6644 0.6782 0.6920 0.7057 0.7195 0.7310 0.7402 0.7448 0.7494 0.7517 0.7471 0.7402 0.7425 0.7402 0.7379 0.7379 0.7471 0.7540 0.7563 0.7609 0.7678 0.7747 0.7770 0.7770 0.7770 0.7793 0.7770 0.7747 0.7724 0.7724 0.7678 0.7609 0.7540 0.7471 0.7425 0.7333 0.7126 0.6943 0.6782 0.6644 0.6506 0.6391 0.6230 0.6115 0.6046 0.5977 0.5839 0.5678 0.5540 0.5425 0.5379 0.5471 0.5678 0.5908 0.6069 0.6207 0.6299 0.6276 0.6230 0.6207 0.6138 0.6115 0.6092 0.6092 0.6023 0.5908 0.5747 0.5586 0.5517 0.5448 0.5402 0.5310 0.5218 0.5126 0.5057 0.5011 0.4966 0.4943 0.4920 0.4897 0.4943 0.4966 0.4897 0.4805 0.4759 0.4782 0.4805 0.4759 0.4759 0.4828 0.4828 0.4759 0.4690 0.4713 0.4759 0.4759 0.4828 0.4966 0.5057 0.5103 0.5149 0.5195 0.5241 0.5264 0.5287 0.5333 0.5379 0.5356 0.5356 0.5379 0.5379 0.5310 0.5218 0.5195 0.5218 0.5241 0.5287 0.5310 0.5379 0.5448 0.5494 0.5494 0.5517 0.5517 0.5494 0.5517 0.5494 0.5471 0.5448 0.5425 0.5448 0.5494 0.5517 0.5563 0.5586 0.5655 0.5747 0.5816 0.5862 0.5885 0.5908 0.5908 0.5908 0.5931 0.5931 0.5885 0.5839 0.5816 0.5816
0.7057 0.7126 0.7195 0.7195 0.7218 0.7264 0.7402 0.7494 0.7540 0.7517 0.7517 0.7517 0.7494 0.7586 0.7678 0.7747 0.7885 0.8046 0.8092 0.8092 0.8115 0.8138 0.8230 0.8299 0.8230 0.8230 0.8230 0.8184 0.8115 0.8023 0.7931 0.7816 0.7724 0.7678 0.7586 0.7471 0.7471 0.7402 0.7356 0.7264 0.7126 0.7034 0.6874 0.6874 0.6897 0.6897 0.6782 0.6667 0.6690 0.6713 0.6690 0.6644 0.6644 0.6644 0.6690 0.6644 0.6552 0.6483 0.6414 0.6391 0.6368 0.6368 0.6345 0.6368 0.6460 0.6529 0.6552 0.6552 0.6552 0.6552 0.6575 0.6575 0.6552 0.6598 0.6598 0.6598 0.6552 0.6575 0.6690 0.6782 0.6851 0.6943 0.7011 0.7080 0.7126 0.7149 0.7034 0.6920 0.6805 0.6713 0.6644 0.6575 0.6644 0.6759 0.6943 0.7080 0.7195 0.7310 0.7379 0.7425 0.7517 0.7540 0.7517 0.7471 0.7494 0.7517 0.7494 0.7494 0.7494 0.7563 0.7586 0.7678 0.7724 0.7793 0.7885 0.7908 0.7862 0.7862 0.7839 0.7816 0.7770 0.7770 0.7701 0.7609 0.7563 0.7517 0.7425 0.7287 0.7126 0.6920 0.6782 0.6621 0.6483 0.6322 0.6184 0.6115 0.6000 0.5885 0.5747 0.5609 0.5494 0.5402 0.5471 0.5632 0.5885 0.6092 0.6253 0.6368 0.6437 0.6437 0.6391 0.6299 0.6230 0.6207 0.6207 0.6184 0.6092 0.5977 0.5862 0.5701 0.5563 0.5471 0.5356 0.5287 0.5195 0.5149 0.5103 0.5057 0.5011 0.4966 0.4943 0.4943 0.4966 0.4989 0.4897 0.4805 0.4759 0.4805 0.4805 0.4828 0.4805 0.4828 0.4851 0.4736 0.4713 0.4736 0.4759 0.4805 0.4874 0.4943 0.5034 0.5103 0.5172 0.5218 0.5195 0.5218 0.5264 0.5333 0.5310 0.5264 0.5241 0.5287 0.5310 0.5241 0.5195 0.5172 0.5172 0.5218 0.5241 0.5287 0.5356 0.5425 0.5448 0.5448 0.5448 0.5402 0.5379 0.5402 0.5402 0.5379 0.5379 0.5402 0.5425 0.5448 0.5494 0.5540 0.5586 0.5632 0.5701 0.5770 0.5816 0.5839 0.5839 0.5839 0.5816 0.5839 0.5816 0.5770 0.5747 0.5747 0.5793
0.7149 0.7172 0.7218 0.7264 0.7310 0.7356 0.7425 0.7517 0.7563 0.7609 0.7655 0.7747 0.7770 0.7793 0.7908 0.8000 0.8069 0.8184 0.8276 0.8345 0.8391 0.8391 0.8460 0.8552 0.8552 0.8529 0.8483 0.8391 0.8322 0.8253 0.8138 0.8000 0.7931 0.7816 0.7770 0.7655 0.7563 0.7471 0.7379 0.7310 0.7241 0.7103 0.6943 0.6897 0.6989 0.6966 0.6874 0.6759 0.6713 0.6736 0.6759 0.6736 0.6736 0.6713 0.6690 0.6644 0.6552 0.6483 0.6437 0.6414 0.6437 0.6414 0.6414 0.6437 0.6552 0.6621 0.6644 0.6667 0.6667 0.6667 0.6690 0.6736 0.6759 0.6759 0.6736 0.6713 0.6690 0.6736 0.6828 0.6897 0.6966 0.7057 0.7149 0.7195 0.7218 0.7195 0.7149 0.7011 0.6897 0.6782 0.6667 0.6667 0.6667 0.6782 0.6943 0.7080 0.7172 0.7287 0.7402 0.7494 0.7517 0.7540 0.7540 0.7563 0.7586 0.7609 0.7586 0.7586 0.7586 0.7586 0.7655 0.7770 0.7839 0.7885 0.7954 0.7954 0.7931 0.7931 0.7908 0.7885 0.7839 0.7770 0.7701 0.7655 0.7632 0.7586 0.7494 0.7356 0.7195 0.7103 0.6943 0.6782 0.6621 0.6460 0.6299 0.6161 0.6000 0.5816 0.5701 0.5632 0.5563 0.5540 0.5678 0.5862 0.6092 0.6276 0.6391 0.6460 0.6529 0.6529 0.6483 0.6414 0.6322 0.6299 0.6276 0.6230 0.6115 0.6000 0.5862 0.5724 0.5609 0.5471 0.5402 0.5310 0.5218 0.5172 0.5126 0.5103 0.5103 0.5080 0.5011 0.4989 0.4989 0.4966 0.4897 0.4828 0.4828 0.4851 0.4874 0.4897 0.4920 0.4966 0.4920 0.4874 0.4828 0.4805 0.4805 0.4851 0.4897 0.4943 0.4943 0.5057 0.5126 0.5172 0.5172 0.5195 0.5218 0.5264 0.5264 0.5218 0.5172 0.5172 0.5195 0.5172 0.5149 0.5149 0.5172 0.5195 0.5218 0.5218 0.5264 0.5333 0.5356 0.5379 0.5356 0.5333 0.5333 0.5356 0.5356 0.5333 0.5333 0.5379 0.5425 0.5471 0.5494 0.5517 0.5540 0.5563 0.5609 0.5678 0.5724 0.5747 0.5770 0.5793 0.5793 0.5770 0.5770 0.5724 0.5701 0.5724 0.5770
0.7149 0.7195 0.7241 0.7356 0.7448 0.7471 0.7494 0.7586 0.7655 0.7724 0.7816 0.7885 0.7908 0.8023 0.8092 0.8207 0.8276 0.8391 0.8529 0.8575 0.8621 0.8667 0.8736 0.8805 0.8851 0.8782 0.8736 0.8575 0.8483 0.8391 0.8299 0.8184 0.8046 0.7931 0.7816 0.7724 0.7609 0.7494 0.7402 0.7333 0.7264 0.7195 0.7080 0.7034 0.6989 0.6966 0.6874 0.6782 0.6759 0.6782 0.6805 0.6782 0.6759 0.6713 0.6667 0.6621 0.6552 0.6483 0.6437 0.6414 0.6437 0.6460 0.6437 0.6483 0.6598 0.6690 0.6690 0.6736 0.6736 0.6782 0.6851 0.6897 0.6874 0.6897 0.6897 0.6828 0.6782 0.6782 0.6897 0.7011 0.7103 0.7195 0.7287 0.7356 0.7333 0.7287 0.7172 0.7057 0.6943 0.6828 0.6736 0.6713 0.6759 0.6851 0.6989 0.7103 0.7241 0.7379 0.7471 0.7540 0.7563 0.7540 0.7586 0.7609 0.7632 0.7655 0.7655 0.7701 0.7701 0.7724 0.7770 0.7839 0.7885 0.7908 0.7931 0.7977 0.7977 0.7977 0.7931 0.7908 0.7839 0.7747 0.7724 0.7678 0.7655 0.7586 0.7494 0.7425 0.7333 0.7218 0.7057 0.6851 0.6667 0.6506 0.6345 0.6207 0.6000 0.5793 0.5655 0.5586 0.5563 0.5655 0.5839 0.6023 0.6184 0.6322 0.6437 0.6483 0.6506 0.6506 0.6506 0.6460 0.6391 0.6345 0.6322 0.6253 0.6115 0.5954 0.5816 0.5701 0.5609 0.5494 0.5425 0.5356 0.5287 0.5218 0.5172 0.5172 0.5149 0.5080 0.5011 0.4966 0.4943 0.4874 0.4759 0.4851 0.4966 0.4989 0.4920 0.4920 0.4920 0.4897 0.4874 0.4851 0.4805 0.4782 0.4805 0.4828 0.4805 0.4782 0.4851 0.4943 0.5034 0.5080 0.5080 0.5080 0.5103 0.5149 0.5172 0.5149 0.5103 0.5103 0.5126 0.5126 0.5126 0.5126 0.5126 0.5172 0.5172 0.5172 0.5195 0.5218 0.5241 0.5264 0.5264 0.5287 0.5310 0.5310 0.5310 0.5333 0.5333 0.5379 0.5425 0.5448 0.5471 0.5471 0.5494 0.5540 0.5586 0.5655 0.5678 0.5655 0.5655 0.5724 0.5747 0.5724 0.5701 0.5678 0.5678 0.5724 0.5770
0.7057 0.7172 0.7287 0.7356 0.7471 0.7517 0.7563 0.7632 0.7701 0.7747 0.7862 0.7977 0.8138 0.8207 0.8299 0.8368 0.8483 0.8644 0.8736 0.8759 0.8828 0.8828 0.8943 0.9057 0.9011 0.8943 0.8828 0.8713 0.8575 0.8483 0.8368 0.8276 0.8161 0.8000 0.7839 0.7747 0.7655 0.7563 0.7448 0.7356 0.7310 0.7241 0.7195 0.7103 0.6989 0.6920 0.6828 0.6782 0.6759 0.6759 0.6782 0.6828 0.6828 0.6759 0.6667 0.6621 0.6575 0.6506 0.6483 0.6483 0.6506 0.6506 0.6460 0.6529 0.6621 0.6713 0.6782 0.6851 0.6920 0.6966 0.7011 0.7034 0.7034 0.7057 0.7057 0.6989 0.6943 0.6943 0.7034 0.7172 0.7241 0.7310 0.7379 0.7425 0.7402 0.7333 0.7218 0.7080 0.6966 0.6874 0.6782 0.6782 0.6851 0.6966 0.7057 0.7195 0.7333 0.7448 0.7540 0.7609 0.7586 0.7609 0.7632 0.7678 0.7724 0.7724 0.7747 0.7770 0.7770 0.7770 0.7793 0.7816 0.7839 0.7885 0.7931 0.7977 0.7977 0.7977 0.7908 0.7862 0.7816 0.7770 0.7724 0.7655 0.7609 0.7540 0.7448 0.7379 0.7310 0.7172 0.7034 0.6874 0.6690 0.6552 0.6368 0.6161 0.5977 0.5793 0.5609 0.5563 0.5609 0.5793 0.5954 0.6115 0.6276 0.6368 0.6414 0.6460 0.6460 0.6483 0.6529 0.6506 0.6460 0.6391 0.6322 0.6253 0.6115 0.5954 0.5793 0.5655 0.5586 0.5517 0.5471 0.5494 0.5586 0.5540 0.5471 0.5425 0.5264 0.5126 0.4989 0.4920 0.4920 0.4874 0.4828 0.4943 0.5126 0.4989 0.4897 0.4851 0.4828 0.4828 0.4828 0.4805 0.4782 0.4782 0.4805 0.4759 0.4713 0.4759 0.4828 0.4897 0.4943 0.4989 0.5011 0.5011 0.5034 0.5080 0.5057 0.5057 0.5057 0.5057 0.5080 0.5080 0.5103 0.5103 0.5126 0.5149 0.5149 0.5149 0.5149 0.5172 0.5172 0.5172 0.5195 0.5195 0.5218 0.5264 0.5287 0.5333 0.5356 0.5356 0.5356 0.5379 0.5402 0.5448 0.5517 0.5563 0.5609 0.5655 0.5609 0.5609 0.5609 0.5655 0.5678 0.5678 0.5678 0.5678 0.5701 0.5747 0.5793
0.7011 0.7126 0.7195 0.7264 0.7356 0.7448 0.7494 0.7609 0.7632 0.7678 0.7793 0.7954 0.8115 0.8230 0.8391 0.8529 0.8690 0.8828 0.8966 0.9080 0.9149 0.9126 0.9172 0.9264 0.9218 0.9080 0.8920 0.8805 0.8690 0.8575 0.8414 0.8276 0.8184 0.8046 0.7885 0.7770 0.7655 0.7563 0.7448 0.7379 0.7264 0.7218 0.7172 0.7103 0.6989 0.6897 0.6851 0.6828 0.6828 0.6782 0.6782 0.6828 0.6828 0.6736 0.6621 0.6598 0.6575 0.6552 0.6529 0.6529 0.6529 0.6506 0.6483 0.6529 0.6598 0.6690 0.6828 0.6943 0.7034 0.7057 0.7103 0.7172 0.7172 0.7195 0.7172 0.7126 0.7126 0.7172 0.7241 0.7287 0.7379 0.7425 0.7425 0.7448 0.7425 0.7379 0.7264 0.7126 0.6989 0.6874 0.6805 0.6782 0.6897 0.7011 0.7149 0.7287 0.7402 0.7448 0.7540 0.7586 0.7609 0.7632 0.7678 0.7701 0.7770 0.7816 0.7816 0.7816 0.7747 0.7724 0.7747 0.7793 0.7839 0.7885 0.7931 0.7954 0.7977 0.7954 0.7908 0.7839 0.7816 0.7793 0.7701 0.7632 0.7540 0.7448 0.7379 0.7310 0.7172 0.7034 0.6920 0.6805 0.6644 0.6506 0.6345 0.6115 0.5931 0.5770 0.5609 0.5586 0.5655 0.5816 0.6000 0.6138 0.6230 0.6299 0.6345 0.6345 0.6368 0.6460 0.6529 0.6529 0.6506 0.6460 0.6345 0.6184 0.6115 0.6000 0.5816 0.5724 0.5701 0.5655 0.5655 0.5770 0.5862 0.5862 0.5793 0.5586 0.5379 0.5149 0.5011 0.4943 0.4920 0.4966 0.4966 0.4920 0.4943 0.4920 0.4851 0.4828 0.4805 0.4782 0.4805 0.4805 0.4805 0.4828 0.4805 0.4759 0.4736 0.4759 0.4828 0.4897 0.4943 0.4989 0.5011 0.5011 0.5034 0.4989 0.4966 0.4966 0.5011 0.5057 0.5034 0.5034 0.5080 0.5103 0.5126 0.5126 0.5126 0.5103 0.5103 0.5149 0.5149 0.5172 0.5172 0.5172 0.5195 0.5218 0.5264 0.5287 0.5333 0.5333 0.5333 0.5333 0.5356 0.5425 0.5494 0.5563 0.5586 0.5563 0.5517 0.5517 0.5586 0.5609 0.5655 0.5655 0.5678 0.5701 0.5724 0.5793 0.5816
0.6966 0.7057 0.7103 0.7172 0.7287 0.7333 0.7333 0.7448 0.7494 0.7563 0.7724 0.7954 0.8092 0.8207 0.8391 0.8621 0.8805 0.8943 0.9126 0.9241 0.9356 0.9379 0.9402 0.9402 0.9356 0.9195 0.9011 0.8874 0.8759 0.8598 0.8414 0.8276 0.8184 0.8046 0.7862 0.7724 0.7609 0.7448 0.7356 0.7287 0.7195 0.7126 0.7103 0.7057 0.6989 0.6966 0.6966 0.6943 0.6897 0.6828 0.6805 0.6828 0.6805 0.6736 0.6667 0.6621 0.6598 0.6575 0.6552 0.6575 0.6575 0.6598 0.6621 0.6621 0.6667 0.6713 0.6828 0.6943 0.6989 0.7034 0.7103 0.7172 0.7264 0.7287 0.7241 0.7287 0.7333 0.7356 0.7356 0.7379 0.7425 0.7448 0.7471 0.7471 0.7448 0.7425 0.7356 0.7218 0.7034 0.6920 0.6782 0.6782 0.6851 0.7034 0.7241 0.7379 0.7448 0.7517 0.7563 0.7609 0.7655 0.7701 0.7701 0.7747 0.7793 0.7839 0.7839 0.7793 0.7747 0.7701 0.7747 0.7816 0.7885 0.7908 0.7931 0.7954 0.7954 0.7954 0.7908 0.7862 0.7839 0.7770 0.7724 0.7632 0.7517 0.7425 0.7287 0.7149 0.7034 0.6897 0.6782 0.6667 0.6529 0.6414 0.6276 0.6069 0.5908 0.5770 0.5701 0.5701 0.5747 0.5862 0.5977 0.6023 0.6046 0.6115 0.6184 0.6230 0.6322 0.6437 0.6552 0.6575 0.6575 0.6575 0.6414 0.6253 0.6184 0.6207 0.6161 0.6046 0.5931 0.5862 0.5931 0.5954 0.5954 0.5977 0.5839 0.5701 0.5471 0.5264 0.5126 0.4943 0.4874 0.4851 0.4851 0.4874 0.4897 0.4874 0.4828 0.4805 0.4805 0.4805 0.4805 0.4805 0.4805 0.4828 0.4828 0.4782 0.4782 0.4828 0.4874 0.4943 0.5011 0.5057 0.5080 0.5080 0.5080 0.5034 0.4989 0.4989 0.5057 0.5080 0.5103 0.5126 0.5126 0.5149 0.5126 0.5149 0.5126 0.5080 0.5080 0.5126 0.5126 0.5195 0.5218 0.5241 0.5241 0.5264 0.5264 0.5287 0.5333 0.5356 0.5310 0.5310 0.5356 0.5402 0.5448 0.5494 0.5517 0.5494 0.5471 0.5448 0.5517 0.5586 0.5609 0.5655 0.5678 0.5678 0.5701 0.5747 0.5770
0.6943 0.6989 0.7034 0.7103 0.7241 0.7264 0.7287 0.7310 0.7402 0.7517 0.7678 0.7954 0.8138 0.8253 0.8460 0.8690 0.8897 0.9057 0.9172 0.9310 0.9425 0.9471 0.9471 0.9448 0.9333 0.9195 0.9034 0.8874 0.8736 0.8552 0.8414 0.8299 0.8161 0.8023 0.7816 0.7655 0.7494 0.7356 0.7264 0.7218 0.7172 0.7149 0.7126 0.7057 0.7057 0.7080 0.7057 0.6989 0.6897 0.6828 0.6805 0.6828 0.6851 0.6828 0.6782 0.6759 0.6713 0.6690 0.6667 0.6644 0.6690 0.6736 0.6736 0.6736 0.6736 0.6759 0.6805 0.6874 0.6920 0.6989 0.7034 0.7126 0.7241 0.7333 0.7333 0.7402 0.7494 0.7494 0.7471 0.7494 0.7517 0.7540 0.7540 0.7517 0.7494 0.7494 0.7448 0.7287 0.7057 0.6943 0.6828 0.6828 0.6943 0.7149 0.7379 0.7471 0.7517 0.7609 0.7655 0.7678 0.7724 0.7747 0.7747 0.7793 0.7839 0.7862 0.7885 0.7839 0.7770 0.7747 0.7747 0.7816 0.7885 0.7908 0.7931 0.7931 0.7931 0.7931 0.7885 0.7816 0.7793 0.7724 0.7655 0.7563 0.7471 0.7310 0.7126 0.6989 0.6851 0.6736 0.6598 0.6483 0.6368 0.6276 0.6161 0.6023 0.5931 0.5885 0.5862 0.5885 0.5908 0.5931 0.5954 0.6000 0.6023 0.6092 0.6207 0.6299 0.6414 0.6552 0.6667 0.6690 0.6690 0.6621 0.6552 0.6391 0.6414 0.6483 0.6460 0.6391 0.6276 0.6207 0.6230 0.6138 0.6046 0.5954 0.5816 0.5701 0.5540 0.5356 0.5195 0.4989 0.4828 0.4736 0.4782 0.4828 0.4851 0.4828 0.4782 0.4805 0.4805 0.4805 0.4805 0.4805 0.4805 0.4828 0.4805 0.4782 0.4805 0.4851 0.4943 0.4966 0.5034 0.5103 0.5126 0.5149 0.5172 0.5149 0.5103 0.5103 0.5126 0.5195 0.5241 0.5264 0.5264 0.5264 0.5264 0.5264 0.5241 0.5172 0.5172 0.5172 0.5172 0.5241 0.5310 0.5333 0.5356 0.5356 0.5333 0.5333 0.5402 0.5402 0.5356 0.5333 0.5333 0.5379 0.5402 0.5425 0.5448 0.5448 0.5425 0.5425 0.5471 0.5517 0.5609 0.5632 0.5655 0.5655 0.5678 0.5678 0.5701
0.6943 0.6989 0.7011 0.7057 0.7103 0.7172 0.7241 0.7333 0.7425 0.7563 0.7747 0.7977 0.8184 0.8322 0.8506 0.8782 0.8966 0.9103 0.9218 0.9310 0.9379 0.9448 0.9448 0.9425 0.9356 0.9195 0.9034 0.8874 0.8690 0.8506 0.8345 0.8184 0.8092 0.7931 0.7747 0.7540 0.7356 0.7264 0.7195 0.7241 0.7264 0.7287 0.7264 0.7218 0.7195 0.7195 0.7126 0.7011 0.6897 0.6851 0.6851 0.6897 0.6966 0.7034 0.7080 0.7034 0.6943 0.6851 0.6736 0.6713 0.6736 0.6805 0.6828 0.6851 0.6874 0.6874 0.6828 0.6851 0.6874 0.6966 0.7034 0.7126 0.7241 0.7310 0.7379 0.7540 0.7586 0.7609 0.7609 0.7632 0.7655 0.7655 0.7632 0.7586 0.7563 0.7563 0.7494 0.7310 0.7080 0.6874 0.6828 0.6874 0.6989 0.7241 0.7448 0.7517 0.7586 0.7632 0.7655 0.7701 0.7747 0.7770 0.7793 0.7839 0.7885 0.7885 0.7885 0.7885 0.7839 0.7839 0.7839 0.7839 0.7885 0.7954 0.7954 0.7931 0.7908 0.7885 0.7839 0.7770 0.7724 0.7632 0.7517 0.7402 0.7287 0.7149 0.6966 0.6828 0.6667 0.6529 0.6414 0.6299 0.6230 0.6184 0.6115 0.6023 0.5954 0.5954 0.6000 0.6092 0.6161 0.6207 0.6207 0.6115 0.6161 0.6230 0.6322 0.6414 0.6529 0.6713 0.6805 0.6897 0.6874 0.6874 0.6782 0.6690 0.6621 0.6690 0.6667 0.6644 0.6598 0.6552 0.6506 0.6322 0.6138 0.6000 0.5862 0.5655 0.5494 0.5356 0.5149 0.4943 0.4736 0.4736 0.4759 0.4805 0.4782 0.4759 0.4759 0.4782 0.4782 0.4805 0.4805 0.4805 0.4805 0.4805 0.4805 0.4782 0.4782 0.4851 0.4920 0.4966 0.5034 0.5126 0.5149 0.5195 0.5264 0.5264 0.5264 0.5241 0.5241 0.5287 0.5333 0.5356 0.5379 0.5402 0.5425 0.5425 0.5379 0.5356 0.5379 0.5356 0.5333 0.5356 0.5379 0.5379 0.5402 0.5402 0.5379 0.5379 0.5379 0.5425 0.5425 0.5379 0.5379 0.5379 0.5379 0.5379 0.5402 0.5425 0.5425 0.5448 0.5448 0.5494 0.5586 0.5632 0.5632 0.5632 0.5632 0.5632 0.5632
0.6943 0.6966 0.7011 0.7103 0.7149 0.7195 0.7264 0.7402 0.7494 0.7701 0.7839 0.8046 0.8207 0.8368 0.8529 0.8736 0.8920 0.9080 0.9172 0.9218 0.9287 0.9356 0.9379 0.9333 0.9264 0.9172 0.9011 0.8805 0.8644 0.8460 0.8207 0.8046 0.7908 0.7793 0.7632 0.7448 0.7379 0.7356 0.7356 0.7402 0.7448 0.7471 0.7402 0.7379 0.7310 0.7241 0.7126 0.7034 0.6989 0.6943 0.6943 0.6989 0.7126 0.7218 0.7241 0.7218 0.7103 0.6920 0.6782 0.6736 0.6805 0.6874 0.6966 0.7057 0.7080 0.7080 0.7034 0.6920 0.6920 0.6966 0.7057 0.7218 0.7333 0.7402 0.7517 0.7632 0.7701 0.7724 0.7701 0.7701 0.7701 0.7701 0.7678 0.7632 0.7632 0.7609 0.7471 0.7287 0.7080 0.6943 0.6897 0.6897 0.7034 0.7218 0.7448 0.7563 0.7632 0.7655 0.7701 0.7724 0.7770 0.7793 0.7839 0.7885 0.7885 0.7885 0.7908 0.7885 0.7885 0.7885 0.7885 0.7862 0.7885 0.7908 0.7908 0.7885 0.7839 0.7816 0.7770 0.7724 0.7678 0.7586 0.7448 0.7287 0.7126 0.6943 0.6805 0.6690 0.6552 0.6414 0.6276 0.6207 0.6161 0.6115 0.6092 0.6046 0.6046 0.6138 0.6299 0.6483 0.6621 0.6690 0.6598 0.6460 0.6368 0.6391 0.6460 0.6575 0.6621 0.6782 0.6920 0.6989 0.7080 0.7126 0.7103 0.7011 0.6874 0.6897 0.6897 0.6828 0.6759 0.6713 0.6644 0.6460 0.6253 0.6069 0.5816 0.5586 0.5471 0.5333 0.5149 0.4943 0.4828 0.4805 0.4805 0.4782 0.4759 0.4713 0.4713 0.4736 0.4759 0.4782 0.4805 0.4805 0.4828 0.4851 0.4828 0.4805 0.4828 0.4851 0.4920 0.4966 0.5034 0.5126 0.5172 0.5195 0.5218 0.5264 0.5310 0.5333 0.5310 0.5356 0.5402 0.5402 0.5425 0.5471 0.5494 0.5494 0.5471 0.5471 0.5471 0.5471 0.5448 0.5494 0.5494 0.5471 0.5494 0.5517 0.5471 0.5402 0.5379 0.5425 0.5425 0.5402 0.5402 0.5425 0.5402 0.5402 0.5402 0.5471 0.5517 0.5517 0.5494 0.5517 0.5563 0.5609 0.5586 0.5586 0.5586 0.5586 0.5609
0.7034 0.7057 0.7172 0.7264 0.7287 0.7310 0.7379 0.7448 0.7540 0.7678 0.7885 0.8092 0.8253 0.8368 0.8529 0.8690 0.8828 0.8966 0.9057 0.9103 0.9195 0.9264 0.9264 0.9241 0.9172 0.9057 0.8897 0.8713 0.8575 0.8391 0.8184 0.7931 0.7770 0.7655 0.7540 0.7494 0.7517 0.7586 0.7586 0.7655 0.7701 0.7655 0.7563 0.7494 0.7379 0.7310 0.7218 0.7103 0.7034 0.7011 0.7057 0.7126 0.7241 0.7333 0.7310 0.7218 0.7126 0.6989 0.6828 0.6805 0.6874 0.6989 0.7126 0.7241 0.7287 0.7287 0.7218 0.7080 0.7057 0.7080 0.7126 0.7241 0.7356 0.7448 0.7563 0.7678 0.7724 0.7793 0.7770 0.7747 0.7770 0.7770 0.7701 0.7655 0.7632 0.7540 0.7425 0.7264 0.7126 0.6989 0.6943 0.6966 0.7057 0.7218 0.7379 0.7540 0.7678 0.7747 0.7770 0.7793 0.7816 0.7839 0.7908 0.7908 0.7931 0.7908 0.7908 0.7908 0.7908 0.7908 0.7885 0.7862 0.7862 0.7862 0.7839 0.7793 0.7770 0.7747 0.7724 0.7678 0.7586 0.7471 0.7379 0.7241 0.7034 0.6828 0.6690 0.6575 0.6506 0.6391 0.6299 0.6230 0.6230 0.6184 0.6184 0.6138 0.6161 0.6299 0.6644 0.6851 0.6897 0.6897 0.6851 0.6690 0.6575 0.6552 0.6621 0.6690 0.6782 0.6920 0.7011 0.7149 0.7195 0.7241 0.7241 0.7195 0.7172 0.7195 0.7034 0.6943 0.6805 0.6736 0.6598 0.6437 0.6276 0.6069 0.5839 0.5609 0.5425 0.5310 0.5149 0.4966 0.4828 0.4805 0.4805 0.4805 0.4759 0.4690 0.4667 0.4759 0.4805 0.4828 0.4828 0.4851 0.4874 0.4851 0.4828 0.4828 0.4851 0.4874 0.4897 0.4989 0.5080 0.5195 0.5195 0.5195 0.5195 0.5241 0.5310 0.5402 0.5425 0.5425 0.5448 0.5471 0.5471 0.5517 0.5494 0.5471 0.5494 0.5517 0.5540 0.5517 0.5540 0.5563 0.5586 0.5540 0.5563 0.5563 0.5540 0.5494 0.5471 0.5448 0.5471 0.5448 0.5448 0.5471 0.5471 0.5494 0.5517 0.5586 0.5586 0.5563 0.5586 0.5586 0.5609 0.5586 0.5609 0.5632 0.5609 0.5632 0.5701
