0.0240 0.0258 0.0295 0.0295 0.0295 0.0295 0.0314 0.0314 0.0295 0.0295 0.0295 0.0277 0.0258 0.0240 0.0221 0.0240 0.0277 0.0369 0.0387 0.0406 0.0424 0.0443 0.0461 0.0535 0.0627 0.0664 0.0701 0.0756 0.0793 0.0830 0.0867 0.0904 0.0959 0.1033 0.1070 0.1144 0.1255 0.1328 0.1402 0.1476 0.1568 0.1661 0.1697 0.1845 0.2011 0.2140 0.2251 0.2343 0.2435 0.2491 0.2509 0.2528 0.2528 0.2491 0.2454 0.2399 0.2380 0.2399 0.2417 0.2509 0.2583 0.2638 0.2638 0.2565 0.2472 0.2380 0.2325 0.2362 0.2657 0.2934 0.3137 0.3210 0.3229 0.3247 0.3266 0.3229 0.3100 0.2970 0.2934 0.2934 0.2915 0.2749 0.2509 0.2343 0.2269 0.2380 0.2601 0.2841 0.3063 0.3155 0.3137 0.3007 0.2823 0.2657 0.2528 0.2601 0.2749 0.2897 0.2989 0.3063 0.3063 0.2989 0.2860 0.2731 0.2620 0.2583 0.2712 0.2897 0.3081 0.3229 0.3376 0.3487 0.3579 0.3579 0.3561 0.3635 0.3819 0.3948 0.4004 0.3948 0.3875 0.3819 0.3856 0.3893 0.3911 0.3930 0.3893 0.3875 0.3856 0.3838 0.3819 0.3948 0.4041 0.4170 0.4262 0.4373 0.4465 0.4446 0.4446 0.4410 0.4317 0.4317 0.4317 0.4373 0.4373 0.4354 0.4299 0.4188 0.4114 0.4114 0.4151 0.4188 0.4151 0.4077 0.4004 0.3930 0.3893 0.3875 0.3856 0.3819 0.3801 0.3745 0.3690 0.3635 0.3506 0.3284 0.3044 0.2841 0.2620 0.2343 0.2159 0.1993 0.1790 0.1550 0.1347 0.1255 0.1162 0.1089 0.1052 0.0996 0.0959 0.0978 0.0941 0.0886 0.0830 0.0775 0.0683 0.0498 0.0332 0.0258 0.0240 0.0203 0.0129 0.0074 0.0000 0.0018 0.0018 0.0000 0.0000 0.0000 0.0000 0.0000 0.0000 0.0000 0.0000 0.0000 0.0000 0.0000 0.0000 0.0000 0.0000 0.0000 0.0000 0.0000 0.0000 0.0000 0.0000 0.0000 0.0000 0.0000 0.0000 0.0000 0.0000 0.0000 0.0000 0.0000 0.0000 0.0000 0.0000 0.0000 0.0000 0.0000 0.0000 0.0000 0.0000 0.0000 0.0000 0.0000 0.0000 0.0000 0.0000 0.0000 0.0000 0.0000 0.0000 0.0000 0.0000 0.0000 0.0000 0.0000 0.0000 0.0000 0.0000 0.0000 0.0000 0.0000 0.0000 0.0000 0.0000 0.0000 0.0000 0.0000 0.0000 0.0000 0.0000 0.0000 0.0000 0.0000 0.0000 0.0000 0.0000 0.0000 0.0000 0.0000 0.0000 0.0000 0.0000 0.0000 0.0000 0.0000 0.0000 0.0000 0.0000 0.0000 0.0000 0.0000 0.0000 0.0000 0.0000 0.0000 0.0000 0.0000 0.0000 0.0000 0.0000 0.0000 0.0000 0.0000 0.0000 0.0000 0.0000 0.0000 0.0000 0.0000 0.0000 0.0000 0.0000 0.0000 0.0000 0.0000 0.0000 0.0000 0.0000 0.0000 0.0000 0.0000 0.0000 0.0000 0.0000 0.0000 0.0000 0.0000 0.0000 0.0000 0.0000 0.0000 0.0000 0.0000 0.0000 0.0000 0.0000 0.0000 0.0000 0.0000 0.0000 0.0000 0.0000 0.0000 0.0000 0.0000 0.0000 0.0000 0.0000 0.0000 0.0000 0.0000 0.0000 0.0000 0.0000 0.0000 0.0000 0.0000 0.0000 0.0000 0.0000 0.0000 0.0000 0.0000 0.0000 0.0000 0.0000 0.0000 0.0000 0.0000 0.0000 0.0000 0.0000 0.0000 0.0000 0.0000 0.0000 0.0000 0.0000 0.0000 0.0000 0.0000 0.0000 0.0000 0.0000 0.0000 0.0000 0.0000 0.0000 0.0000 0.0000 0.0000 0.0000 0.0000 0.0000 0.0000 0.0000 0.0000 0.0000 0.0000 0.0000 0.0000 0.0000 0.0000 0.0000 0.0000 0.0000 0.0000 0.0000 0.0000 0.0000 0.0000 0.0000 0.0000 0.0000 0.0000 0.0000 0.0000 0.0000 0.0000 0.0000 0.0000 0.0000 0.0000 0.0000 0.0000 0.0000 0.0000 0.0000 0.0000 0.0000 0.0000
0.0258 0.0277 0.0295 0.0314 0.0314 0.0332 0.0351 0.0351 0.0332 0.0332 0.0332 0.0314 0.0295 0.0277 0.0258 0.0277 0.0332 0.0351 0.0369 0.0424 0.0480 0.0517 0.0535 0.0590 0.0664 0.0720 0.0756 0.0830 0.0904 0.0923 0.0941 0.0996 0.1089 0.1162 0.1218 0.1255 0.1310 0.1384 0.1476 0.1587 0.1679 0.1753 0.1827 0.1937 0.2122 0.2251 0.2325 0.2417 0.2491 0.2601 0.2657 0.2712 0.2768 0.2823 0.2804 0.2786 0.2768 0.2786 0.2804 0.2878 0.2934 0.2915 0.2860 0.2768 0.2657 0.2528 0.2454 0.2601 0.2841 0.3173 0.3376 0.3450 0.3450 0.3487 0.3469 0.3413 0.3284 0.3173 0.3137 0.3173 0.3137 0.2915 0.2657 0.2472 0.2417 0.2472 0.2657 0.2934 0.3155 0.3303 0.3284 0.3137 0.2970 0.2823 0.2694 0.2694 0.2841 0.3044 0.3118 0.3137 0.3118 0.3044 0.2952 0.2823 0.2749 0.2768 0.2860 0.3044 0.3284 0.3469 0.3635 0.3764 0.3819 0.3856 0.3893 0.3948 0.4077 0.4188 0.4262 0.4262 0.4170 0.4151 0.4170 0.4207 0.4262 0.4262 0.4244 0.4188 0.4151 0.4151 0.4188 0.4280 0.4391 0.4483 0.4594 0.4742 0.4797 0.4742 0.4686 0.4649 0.4576 0.4557 0.4576 0.4613 0.4631 0.4576 0.4502 0.4446 0.4391 0.4354 0.4354 0.4354 0.4280 0.4207 0.4096 0.4022 0.3985 0.3985 0.3930 0.3893 0.3838 0.3782 0.3672 0.3579 0.3432 0.3266 0.3044 0.2804 0.2583 0.2325 0.2122 0.1937 0.1753 0.1513 0.1384 0.1273 0.1144 0.1107 0.1107 0.1015 0.0978 0.0978 0.0941 0.0886 0.0812 0.0738 0.0609 0.0461 0.0332 0.0258 0.0221 0.0221 0.0148 0.0111 0.0055 0.0000 0.0018 0.0000 0.0000 0.0000 0.0000 0.0000 0.0000 0.0000 0.0000 0.0000 0.0000 0.0000 0.0000 0.0000 0.0000 0.0000 0.0000 0.0000 0.0000 0.0000 0.0000 0.0000 0.0000 0.0000 0.0000 0.0000 0.0000 0.0000 0.0000 0.0000 0.0000 0.0000 0.0000 0.0000 0.0000 0.0000 0.0000 0.0000 0.0000 0.0000 0.0000 0.0000 0.0000 0.0000 0.0000 0.0000 0.0000 0.0000 0.0000 0.0000 0.0000 0.0000 0.0000 0.0000 0.0000 0.0000 0.0000 0.0000 0.0000 0.0000 0.0000 0.0000 0.0000 0.0000 0.0000 0.0000 0.0000 0.0000 0.0000 0.0000 0.0000 0.0000 0.0000 0.0000 0.0000 0.0000 0.0000 0.0000 0.0000 0.0000 0.0000 0.0000 0.0000 0.0000 0.0000 0.0000 0.0000 0.0000 0.0000 0.0000 0.0000 0.0000 0.0000 0.0000 0.0000 0.0000 0.0000 0.0000 0.0000 0.0000 0.0000 0.0000 0.0000 0.0000 0.0000 0.0000 0.0000 0.0000 0.0000 0.0000 0.0000 0.0000 0.0000 0.0000 0.0000 0.0000 0.0000 0.0000 0.0000 0.0000 0.0000 0.0000 0.0000 0.0000 0.0000 0.0000 0.0000 0.0000 0.0000 0.0000 0.0000 0.0000 0.0000 0.0000 0.0000 0.0000 0.0000 0.0000 0.0000 0.0000 0.0000 0.0000 0.0000 0.0000 0.0000 0.0000 0.0000 0.0000 0.0000 0.0000 0.0000 0.0000 0.0000 0.0000 0.0000 0.0000 0.0000 0.0000 0.0000 0.0000 0.0000 0.0000 0.0000 0.0000 0.0000 0.0000 0.0000 0.0000 0.0000 0.0000 0.0000 0.0000 0.0000 0.0000 0.0000 0.0000 0.0000 0.0000 0.0000 0.0000 0.0000 0.0000 0.0000 0.0000 0.0000 0.0000 0.0000 0.0000 0.0000 0.0000 0.0000 0.0000 0.0000 0.0000 0.0000 0.0000 0.0000 0.0000 0.0000 0.0000 0.0000 0.0000 0.0000 0.0000 0.0000 0.0000 0.0000 0.0000 0.0000 0.0000 0.0000 0.0000 0.0000 0.0000 0.0000 0.0000 0.0000 0.0000 0.0000 0.0000 0.0000 0.0000 0.0000 0.0000 0.0000 0.0000 0.0000 0.0000 0.0000 0.0000
0.0277 0.0295 0.0314 0.0314 0.0332 0.0351 0.0369 0.0351 0.0332 0.0351 0.0351 0.0351 0.0314 0.0314 0.0314 0.0332 0.0369 0.0387 0.0424 0.0517 0.0609 0.0646 0.0683 0.0720 0.0775 0.0793 0.0812 0.0886 0.0959 0.0996 0.1033 0.1070 0.1181 0.1255 0.1328 0.1384 0.1421 0.1494 0.1624 0.1716 0.1771 0.1845 0.1937 0.2048 0.2196 0.2306 0.2380 0.2491 0.2657 0.2786 0.2897 0.3007 0.3063 0.3100 0.3100 0.3100 0.3137 0.3155 0.3173 0.3173 0.3137 0.3081 0.2989 0.2897 0.2768 0.2694 0.2694 0.2841 0.3137 0.3395 0.3579 0.3653 0.3672 0.3690 0.3672 0.3561 0.3450 0.3358 0.3321 0.3358 0.3321 0.3173 0.2934 0.2731 0.2565 0.2565 0.2712 0.2934 0.3229 0.3413 0.3413 0.3321 0.3173 0.2989 0.2860 0.2823 0.2952 0.3137 0.3229 0.3247 0.3210 0.3155 0.3081 0.2970 0.2897 0.2934 0.3044 0.3210 0.3413 0.3653 0.3856 0.3967 0.4059 0.4114 0.4114 0.4151 0.4262 0.4391 0.4520 0.4557 0.4520 0.4465 0.4446 0.4483 0.4502 0.4539 0.4502 0.4502 0.4446 0.4446 0.4465 0.4520 0.4613 0.4779 0.4926 0.5037 0.5074 0.5037 0.4945 0.4871 0.4834 0.4779 0.4779 0.4815 0.4815 0.4760 0.4705 0.4594 0.4539 0.4465 0.4428 0.4391 0.4336 0.4244 0.4151 0.4133 0.4059 0.3930 0.3838 0.3801 0.3782 0.3672 0.3524 0.3413 0.3303 0.3173 0.3007 0.2768 0.2509 0.2232 0.2030 0.1845 0.1716 0.1531 0.1384 0.1292 0.1181 0.1125 0.1125 0.1070 0.1015 0.0978 0.0904 0.0830 0.0756 0.0646 0.0554 0.0424 0.0351 0.0258 0.0258 0.0258 0.0221 0.0203 0.0111 0.0037 0.0018 0.0018 0.0000 0.0000 0.0000 0.0000 0.0000 0.0000 0.0000 0.0000 0.0000 0.0000 0.0000 0.0000 0.0000 0.0000 0.0000 0.0000 0.0000 0.0000 0.0000 0.0000 0.0000 0.0000 0.0000 0.0000 0.0000 0.0000 0.0000 0.0000 0.0000 0.0000 0.0000 0.0000 0.0000 0.0000 0.0000 0.0000 0.0000 0.0000 0.0000 0.0000 0.0000 0.0000 0.0000 0.0000 0.0000 0.0000 0.0000 0.0000 0.0000 0.0000 0.0000 0.0000 0.0000 0.0000 0.0000 0.0000 0.0000 0.0000 0.0000 0.0000 0.0000 0.0000 0.0000 0.0000 0.0000 0.0000 0.0000 0.0000 0.0000 0.0000 0.0000 0.0000 0.0000 0.0000 0.0000 0.0000 0.0000 0.0000 0.0000 0.0000 0.0000 0.0000 0.0000 0.0000 0.0000 0.0000 0.0000 0.0000 0.0000 0.0000 0.0000 0.0000 0.0000 0.0000 0.0000 0.0000 0.0000 0.0000 0.0000 0.0000 0.0000 0.0000 0.0000 0.0000 0.0000 0.0000 0.0000 0.0000 0.0000 0.0000 0.0000 0.0000 0.0000 0.0000 0.0000 0.0000 0.0000 0.0000 0.0000 0.0000 0.0000 0.0000 0.0000 0.0000 0.0000 0.0000 0.0000 0.0000 0.0000 0.0000 0.0000 0.0000 0.0000 0.0000 0.0000 0.0000 0.0000 0.0000 0.0000 0.0000 0.0000 0.0000 0.0000 0.0000 0.0000 0.0000 0.0000 0.0000 0.0000 0.0000 0.0000 0.0000 0.0000 0.0000 0.0000 0.0000 0.0000 0.0000 0.0000 0.0000 0.0000 0.0000 0.0000 0.0000 0.0000 0.0000 0.0000 0.0000 0.0000 0.0000 0.0000 0.0000 0.0000 0.0000 0.0000 0.0000 0.0000 0.0000 0.0000 0.0000 0.0000 0.0000 0.0000 0.0000 0.0000 0.0000 0.0000 0.0000 0.0000 0.0000 0.0000 0.0000 0.0000 0.0000 0.0000 0.0000 0.0000 0.0000 0.0000 0.0000 0.0000 0.0000 0.0000 0.0000 0.0000 0.0000 0.0000 0.0000 0.0000 0.0000 0.0000 0.0000 0.0000 0.0000 0.0000 0.0000 0.0000 0.0000 0.0000 0.0000 0.0000 0.0000 0.0000 0.0000 0.0000 0.0000 0.0000 0.0000
0.0277 0.0295 0.0332 0.0332 0.0369 0.0387 0.0387 0.0387 0.0369 0.0387 0.0387 0.0369 0.0332 0.0314 0.0314 0.0351 0.0406 0.0480 0.0554 0.0646 0.0701 0.0756 0.0812 0.0849 0.0867 0.0867 0.0886 0.0923 0.0996 0.1052 0.1107 0.1199 0.1273 0.1347 0.1402 0.1476 0.1531 0.1661 0.1771 0.1845 0.1882 0.1956 0.2085 0.2196 0.2306 0.2362 0.2472 0.2620 0.2804 0.2970 0.3118 0.3192 0.3247 0.3284 0.3284 0.3303 0.3339 0.3395 0.3413 0.3376 0.3321 0.3210 0.3118 0.3044 0.2952 0.2841 0.2841 0.2989 0.3284 0.3561 0.3745 0.3875 0.3911 0.3930 0.3911 0.3782 0.3690 0.3598 0.3542 0.3524 0.3506 0.3432 0.3229 0.3007 0.2823 0.2749 0.2878 0.3137 0.3376 0.3542 0.3542 0.3487 0.3358 0.3155 0.2989 0.2952 0.3081 0.3229 0.3339 0.3358 0.3339 0.3284 0.3210 0.3137 0.3118 0.3210 0.3358 0.3469 0.3616 0.3838 0.4022 0.4170 0.4244 0.4262 0.4299 0.4336 0.4465 0.4631 0.4742 0.4797 0.4742 0.4668 0.4668 0.4686 0.4742 0.4815 0.4852 0.4815 0.4779 0.4742 0.4686 0.4705 0.4871 0.5092 0.5166 0.5258 0.5314 0.5240 0.5148 0.5055 0.5000 0.4945 0.4926 0.4908 0.4889 0.4834 0.4742 0.4668 0.4576 0.4520 0.4483 0.4410 0.4299 0.4188 0.4151 0.4077 0.3948 0.3782 0.3708 0.3690 0.3635 0.3524 0.3376 0.3266 0.3137 0.3026 0.2860 0.2657 0.2399 0.2177 0.1974 0.1808 0.1661 0.1458 0.1347 0.1255 0.1144 0.1125 0.1107 0.1089 0.1015 0.0941 0.0849 0.0775 0.0720 0.0627 0.0498 0.0424 0.0332 0.0277 0.0295 0.0332 0.0351 0.0332 0.0203 0.0074 0.0055 0.0055 0.0018 0.0000 0.0000 0.0000 0.0000 0.0000 0.0000 0.0000 0.0000 0.0000 0.0000 0.0000 0.0000 0.0000 0.0000 0.0000 0.0000 0.0000 0.0000 0.0000 0.0000 0.0000 0.0000 0.0000 0.0000 0.0000 0.0000 0.0000 0.0000 0.0000 0.0000 0.0000 0.0000 0.0000 0.0000 0.0000 0.0000 0.0000 0.0000 0.0000 0.0000 0.0000 0.0000 0.0000 0.0000 0.0000 0.0000 0.0000 0.0000 0.0000 0.0000 0.0000 0.0000 0.0000 0.0000 0.0000 0.0000 0.0000 0.0000 0.0000 0.0000 0.0000 0.0000 0.0000 0.0000 0.0000 0.0000 0.0000 0.0000 0.0000 0.0000 0.0000 0.0000 0.0000 0.0000 0.0000 0.0000 0.0000 0.0000 0.0000 0.0000 0.0000 0.0000 0.0000 0.0000 0.0000 0.0000 0.0000 0.0000 0.0000 0.0000 0.0000 0.0000 0.0000 0.0000 0.0000 0.0000 0.0000 0.0000 0.0000 0.0000 0.0000 0.0000 0.0000 0.0000 0.0000 0.0000 0.0000 0.0000 0.0000 0.0000 0.0000 0.0000 0.0000 0.0000 0.0000 0.0000 0.0000 0.0000 0.0000 0.0000 0.0000 0.0000 0.0000 0.0000 0.0000 0.0000 0.0000 0.0000 0.0000 0.0000 0.0000 0.0000 0.0000 0.0000 0.0000 0.0000 0.0000 0.0000 0.0000 0.0000 0.0000 0.0000 0.0000 0.0000 0.0000 0.0000 0.0000 0.0000 0.0000 0.0000 0.0000 0.0000 0.0000 0.0000 0.0000 0.0000 0.0000 0.0000 0.0000 0.0000 0.0000 0.0000 0.0000 0.0000 0.0000 0.0000 0.0000 0.0000 0.0000 0.0000 0.0000 0.0000 0.0000 0.0000 0.0000 0.0000 0.0000 0.0000 0.0000 0.0000 0.0000 0.0000 0.0000 0.0000 0.0000 0.0000 0.0000 0.0000 0.0000 0.0000 0.0000 0.0000 0.0000 0.0000 0.0000 0.0000 0.0000 0.0000 0.0000 0.0000 0.0000 0.0000 0.0000 0.0000 0.0000 0.0000 0.0000 0.0000 0.0000 0.0000 0.0000 0.0000 0.0000 0.0000 0.0000 0.0000 0.0000 0.0000 0.0000 0.0000 0.0000 0.0000 0.0000 0.0000 0.0000 0.0000 0.0000
0.0314 0.0295 0.0332 0.0351 0.0369 0.0387 0.0406 0.0406 0.0443 0.0461 0.0443 0.0406 0.0369 0.0351 0.0351 0.0387 0.0443 0.0554 0.0664 0.0720 0.0756 0.0830 0.0886 0.0923 0.0923 0.0923 0.0904 0.0959 0.1033 0.1089 0.1144 0.1255 0.1347 0.1421 0.1476 0.1568 0.1679 0.1808 0.1937 0.2011 0.2066 0.2159 0.2269 0.2362 0.2417 0.2528 0.2620 0.2786 0.2952 0.3100 0.3247 0.3321 0.3358 0.3432 0.3487 0.3506 0.3506 0.3506 0.3524 0.3524 0.3506 0.3469 0.3395 0.3284 0.3155 0.3026 0.2970 0.3118 0.3395 0.3708 0.3930 0.4059 0.4096 0.4114 0.4059 0.3948 0.3838 0.3764 0.3672 0.3616 0.3616 0.3579 0.3432 0.3210 0.2989 0.2878 0.3007 0.3229 0.3524 0.3690 0.3708 0.3672 0.3542 0.3339 0.3137 0.3118 0.3192 0.3339 0.3450 0.3506 0.3524 0.3469 0.3413 0.3358 0.3395 0.3542 0.3653 0.3764 0.3875 0.4004 0.4151 0.4262 0.4373 0.4446 0.4502 0.4576 0.4723 0.4852 0.4963 0.5037 0.5000 0.4945 0.4945 0.4945 0.5000 0.5111 0.5166 0.5129 0.5092 0.5055 0.5055 0.5092 0.5185 0.5295 0.5351 0.5443 0.5480 0.5387 0.5277 0.5166 0.5129 0.5111 0.5074 0.5000 0.4926 0.4871 0.4815 0.4668 0.4576 0.4539 0.4483 0.4391 0.4262 0.4114 0.4022 0.3911 0.3708 0.3616 0.3561 0.3506 0.3450 0.3321 0.3229 0.3137 0.3026 0.2878 0.2731 0.2565 0.2362 0.2159 0.1974 0.1734 0.1531 0.1402 0.1310 0.1236 0.1144 0.1125 0.1125 0.1089 0.0978 0.0849 0.0775 0.0720 0.0683 0.0590 0.0480 0.0369 0.0314 0.0314 0.0351 0.0424 0.0480 0.0461 0.0314 0.0148 0.0129 0.0111 0.0055 0.0037 0.0018 0.0018 0.0018 0.0000 0.0000 0.0000 0.0000 0.0000 0.0000 0.0000 0.0000 0.0000 0.0000 0.0000 0.0000 0.0000 0.0000 0.0000 0.0000 0.0000 0.0000 0.0000 0.0000 0.0000 0.0000 0.0000 0.0000 0.0000 0.0000 0.0000 0.0000 0.0000 0.0000 0.0000 0.0000 0.0000 0.0000 0.0000 0.0000 0.0000 0.0000 0.0000 0.0000 0.0000 0.0000 0.0000 0.0000 0.0000 0.0000 0.0000 0.0000 0.0000 0.0000 0.0000 0.0000 0.0000 0.0000 0.0000 0.0000 0.0000 0.0000 0.0000 0.0000 0.0000 0.0000 0.0000 0.0000 0.0000 0.0000 0.0000 0.0000 0.0000 0.0000 0.0000 0.0000 0.0000 0.0000 0.0000 0.0000 0.0000 0.0000 0.0000 0.0000 0.0000 0.0000 0.0000 0.0000 0.0000 0.0000 0.0000 0.0000 0.0000 0.0000 0.0000 0.0000 0.0000 0.0000 0.0000 0.0000 0.0000 0.0000 0.0000 0.0000 0.0000 0.0000 0.0000 0.0000 0.0000 0.0000 0.0000 0.0000 0.0000 0.0000 0.0000 0.0000 0.0000 0.0000 0.0000 0.0000 0.0000 0.0000 0.0000 0.0000 0.0000 0.0000 0.0000 0.0000 0.0000 0.0000 0.0000 0.0000 0.0000 0.0000 0.0000 0.0000 0.0000 0.0000 0.0000 0.0000 0.0000 0.0000 0.0000 0.0000 0.0000 0.0000 0.0000 0.0000 0.0000 0.0000 0.0000 0.0000 0.0000 0.0000 0.0000 0.0000 0.0000 0.0000 0.0000 0.0000 0.0000 0.0000 0.0000 0.0000 0.0000 0.0000 0.0000 0.0000 0.0000 0.0000 0.0000 0.0000 0.0000 0.0000 0.0000 0.0000 0.0000 0.0000 0.0000 0.0000 0.0000 0.0000 0.0000 0.0000 0.0000 0.0000 0.0000 0.0000 0.0000 0.0000 0.0000 0.0000 0.0000 0.0000 0.0000 0.0000 0.0000 0.0000 0.0000 0.0000 0.0000 0.0000 0.0000 0.0000 0.0000 0.0000 0.0000 0.0000 0.0000 0.0000 0.0000 0.0000 0.0000 0.0000 0.0000 0.0000 0.0000 0.0000 0.0000 0.0000 0.0000 0.0000 0.0000 0.0000 0.0000 0.0000 0.0000
0.0332 0.0332 0.0351 0.0369 0.0387 0.0406 0.0424 0.0443 0.0480 0.0498 0.0480 0.0443 0.0424 0.0406 0.0406 0.0443 0.0517 0.0609 0.0701 0.0775 0.0830 0.0886 0.0959 0.0996 0.1015 0.0996 0.0996 0.1015 0.1070 0.1107 0.1162 0.1255 0.1347 0.1421 0.1513 0.1679 0.1845 0.1974 0.2066 0.2159 0.2232 0.2306 0.2399 0.2546 0.2694 0.2786 0.2897 0.3044 0.3192 0.3321 0.3413 0.3542 0.3561 0.3616 0.3690 0.3708 0.3727 0.3690 0.3672 0.3653 0.3653 0.3653 0.3598 0.3524 0.3413 0.3303 0.3229 0.3266 0.3506 0.3801 0.4004 0.4114 0.4151 0.4151 0.4114 0.4059 0.3967 0.3856 0.3764 0.3745 0.3764 0.3745 0.3579 0.3358 0.3137 0.3063 0.3100 0.3321 0.3635 0.3782 0.3819 0.3782 0.3690 0.3524 0.3413 0.3321 0.3339 0.3450 0.3579 0.3690 0.3727 0.3708 0.3672 0.3635 0.3653 0.3690 0.3856 0.4004 0.4077 0.4133 0.4225 0.4391 0.4557 0.4668 0.4723 0.4797 0.4945 0.5055 0.5203 0.5295 0.5295 0.5277 0.5258 0.5240 0.5258 0.5351 0.5424 0.5424 0.5406 0.5369 0.5387 0.5387 0.5461 0.5517 0.5554 0.5609 0.5590 0.5480 0.5332 0.5240 0.5221 0.5203 0.5129 0.5037 0.4926 0.4889 0.4834 0.4705 0.4576 0.4520 0.4446 0.4354 0.4170 0.4004 0.3838 0.3672 0.3542 0.3432 0.3395 0.3321 0.3229 0.3100 0.3026 0.2970 0.2841 0.2731 0.2620 0.2491 0.2343 0.2122 0.1863 0.1679 0.1568 0.1458 0.1365 0.1255 0.1199 0.1199 0.1181 0.1107 0.0996 0.0849 0.0756 0.0701 0.0627 0.0554 0.0480 0.0387 0.0351 0.0351 0.0443 0.0535 0.0572 0.0535 0.0387 0.0258 0.0221 0.0129 0.0074 0.0092 0.0037 0.0018 0.0018 0.0000 0.0000 0.0000 0.0000 0.0000 0.0000 0.0000 0.0000 0.0000 0.0000 0.0000 0.0000 0.0000 0.0000 0.0000 0.0000 0.0000 0.0000 0.0000 0.0000 0.0000 0.0000 0.0000 0.0000 0.0000 0.0000 0.0000 0.0000 0.0000 0.0000 0.0000 0.0000 0.0000 0.0000 0.0000 0.0000 0.0000 0.0000 0.0000 0.0000 0.0000 0.0000 0.0000 0.0000 0.0000 0.0000 0.0000 0.0000 0.0000 0.0000 0.0000 0.0000 0.0000 0.0000 0.0000 0.0000 0.0000 0.0000 0.0000 0.0000 0.0000 0.0000 0.0000 0.0000 0.0000 0.0000 0.0000 0.0000 0.0000 0.0000 0.0000 0.0000 0.0000 0.0000 0.0000 0.0000 0.0000 0.0000 0.0000 0.0000 0.0000 0.0000 0.0000 0.0000 0.0000 0.0000 0.0000 0.0000 0.0000 0.0000 0.0000 0.0000 0.0000 0.0000 0.0000 0.0000 0.0000 0.0000 0.0000 0.0000 0.0000 0.0000 0.0000 0.0000 0.0000 0.0000 0.0000 0.0000 0.0000 0.0000 0.0000 0.0000 0.0000 0.0000 0.0000 0.0000 0.0000 0.0000 0.0000 0.0000 0.0000 0.0000 0.0000 0.0000 0.0000 0.0000 0.0000 0.0000 0.0000 0.0000 0.0000 0.0000 0.0000 0.0000 0.0000 0.0000 0.0000 0.0000 0.0000 0.0000 0.0000 0.0000 0.0000 0.0000 0.0000 0.0000 0.0000 0.0000 0.0000 0.0000 0.0000 0.0000 0.0000 0.0000 0.0000 0.0000 0.0000 0.0000 0.0000 0.0000 0.0000 0.0000 0.0000 0.0000 0.0000 0.0000 0.0000 0.0000 0.0000 0.0000 0.0000 0.0000 0.0000 0.0000 0.0000 0.0000 0.0000 0.0000 0.0000 0.0000 0.0000 0.0000 0.0000 0.0000 0.0000 0.0000 0.0000 0.0000 0.0000 0.0000 0.0000 0.0000 0.0000 0.0000 0.0000 0.0000 0.0000 0.0000 0.0000 0.0000 0.0000 0.0000 0.0000 0.0000 0.0000 0.0000 0.0000 0.0000 0.0000 0.0000 0.0000 0.0000 0.0000 0.0000 0.0000 0.0000 0.0000 0.0000 0.0000 0.0000 0.0000 0.0000 0.0000
0.0387 0.0387 0.0406 0.0424 0.0424 0.0443 0.0461 0.0461 0.0498 0.0517 0.0517 0.0480 0.0443 0.0424 0.0443 0.0480 0.0535 0.0646 0.0720 0.0793 0.0867 0.0923 0.0996 0.1052 0.1089 0.1089 0.1070 0.1070 0.1089 0.1125 0.1162 0.1255 0.1347 0.1421 0.1531 0.1697 0.1863 0.1974 0.2085 0.2196 0.2325 0.2435 0.2601 0.2804 0.2989 0.3137 0.3229 0.3339 0.3432 0.3542 0.3653 0.3745 0.3801 0.3838 0.3875 0.3893 0.3875 0.3819 0.3782 0.3764 0.3745 0.3745 0.3708 0.3653 0.3579 0.3450 0.3358 0.3358 0.3506 0.3782 0.4022 0.4151 0.4225 0.4225 0.4207 0.4151 0.4096 0.4004 0.3948 0.3948 0.3967 0.3930 0.3801 0.3579 0.3395 0.3266 0.3247 0.3487 0.3745 0.3911 0.3985 0.3967 0.3930 0.3782 0.3616 0.3506 0.3487 0.3561 0.3708 0.3856 0.3948 0.4022 0.3967 0.3875 0.3819 0.3856 0.4022 0.4207 0.4317 0.4354 0.4428 0.4594 0.4760 0.4852 0.4945 0.5055 0.5185 0.5295 0.5387 0.5517 0.5590 0.5572 0.5517 0.5480 0.5498 0.5590 0.5701 0.5756 0.5738 0.5701 0.5627 0.5664 0.5683 0.5738 0.5701 0.5664 0.5590 0.5443 0.5332 0.5277 0.5277 0.5240 0.5166 0.5055 0.4963 0.4926 0.4871 0.4723 0.4576 0.4502 0.4391 0.4225 0.4059 0.3875 0.3672 0.3542 0.3395 0.3303 0.3210 0.3044 0.2934 0.2878 0.2823 0.2731 0.2694 0.2657 0.2583 0.2435 0.2251 0.2030 0.1827 0.1679 0.1568 0.1494 0.1421 0.1328 0.1310 0.1273 0.1236 0.1125 0.1015 0.0886 0.0775 0.0701 0.0590 0.0535 0.0480 0.0443 0.0424 0.0443 0.0498 0.0590 0.0664 0.0590 0.0480 0.0406 0.0314 0.0240 0.0185 0.0166 0.0129 0.0055 0.0018 0.0018 0.0000 0.0000 0.0000 0.0000 0.0000 0.0000 0.0000 0.0000 0.0000 0.0000 0.0000 0.0000 0.0000 0.0000 0.0000 0.0000 0.0000 0.0000 0.0000 0.0000 0.0000 0.0000 0.0000 0.0000 0.0000 0.0000 0.0000 0.0000 0.0000 0.0000 0.0000 0.0000 0.0000 0.0000 0.0000 0.0000 0.0000 0.0000 0.0000 0.0000 0.0000 0.0000 0.0000 0.0000 0.0000 0.0000 0.0000 0.0000 0.0000 0.0000 0.0000 0.0000 0.0000 0.0000 0.0000 0.0000 0.0000 0.0000 0.0000 0.0000 0.0000 0.0000 0.0000 0.0000 0.0000 0.0000 0.0000 0.0000 0.0000 0.0000 0.0000 0.0000 0.0000 0.0000 0.0000 0.0000 0.0000 0.0000 0.0000 0.0000 0.0000 0.0000 0.0000 0.0000 0.0000 0.0000 0.0000 0.0000 0.0000 0.0000 0.0000 0.0000 0.0000 0.0000 0.0000 0.0000 0.0000 0.0000 0.0000 0.0000 0.0000 0.0000 0.0000 0.0000 0.0000 0.0000 0.0000 0.0000 0.0000 0.0000 0.0000 0.0000 0.0000 0.0000 0.0000 0.0000 0.0000 0.0000 0.0000 0.0000 0.0000 0.0000 0.0000 0.0000 0.0000 0.0000 0.0000 0.0000 0.0000 0.0000 0.0000 0.0000 0.0000 0.0000 0.0000 0.0000 0.0000 0.0000 0.0000 0.0000 0.0000 0.0000 0.0000 0.0000 0.0000 0.0000 0.0000 0.0000 0.0000 0.0000 0.0000 0.0000 0.0000 0.0000 0.0000 0.0000 0.0000 0.0000 0.0000 0.0000 0.0000 0.0000 0.0000 0.0000 0.0000 0.0000 0.0000 0.0000 0.0000 0.0000 0.0000 0.0000 0.0000 0.0000 0.0000 0.0000 0.0000 0.0000 0.0000 0.0000 0.0000 0.0000 0.0000 0.0000 0.0000 0.0000 0.0000 0.0000 0.0000 0.0000 0.0000 0.0000 0.0000 0.0000 0.0000 0.0000 0.0000 0.0000 0.0000 0.0000 0.0000 0.0000 0.0000 0.0000 0.0000 0.0000 0.0000 0.0000 0.0000 0.0000 0.0000 0.0000 0.0000 0.0000 0.0000 0.0000 0.0000 0.0000 0.0000 0.0000 0.0000 0.0000
0.0461 0.0461 0.0461 0.0480 0.0480 0.0498 0.0498 0.0498 0.0517 0.0554 0.0554 0.0498 0.0461 0.0461 0.0461 0.0498 0.0590 0.0664 0.0720 0.0793 0.0867 0.0923 0.0978 0.1052 0.1107 0.1125 0.1144 0.1144 0.1181 0.1218 0.1255 0.1310 0.1328 0.1421 0.1531 0.1679 0.1771 0.1882 0.2030 0.2214 0.2380 0.2509 0.2694 0.2934 0.3192 0.3395 0.3542 0.3635 0.3690 0.3745 0.3801 0.3856 0.3930 0.3985 0.4022 0.4059 0.3985 0.3911 0.3856 0.3838 0.3819 0.3819 0.3801 0.3727 0.3653 0.3561 0.3487 0.3524 0.3635 0.3911 0.4151 0.4262 0.4317 0.4336 0.4317 0.4262 0.4207 0.4151 0.4114 0.4114 0.4133 0.4077 0.3985 0.3838 0.3653 0.3506 0.3487 0.3598 0.3856 0.4077 0.4188 0.4207 0.4133 0.4004 0.3875 0.3727 0.3635 0.3672 0.3819 0.3985 0.4114 0.4188 0.4225 0.4133 0.4022 0.4059 0.4225 0.4410 0.4539 0.4613 0.4631 0.4742 0.4871 0.4982 0.5148 0.5314 0.5443 0.5517 0.5590 0.5720 0.5812 0.5812 0.5738 0.5720 0.5756 0.5830 0.5959 0.6033 0.6052 0.5959 0.5904 0.5849 0.5849 0.5812 0.5738 0.5646 0.5498 0.5406 0.5332 0.5295 0.5295 0.5221 0.5148 0.5055 0.5018 0.4945 0.4889 0.4686 0.4502 0.4336 0.4170 0.4041 0.3911 0.3708 0.3524 0.3376 0.3229 0.3118 0.2952 0.2731 0.2620 0.2620 0.2601 0.2601 0.2583 0.2565 0.2491 0.2306 0.2159 0.1993 0.1808 0.1642 0.1531 0.1458 0.1402 0.1347 0.1328 0.1310 0.1236 0.1162 0.1033 0.0904 0.0793 0.0720 0.0590 0.0517 0.0498 0.0480 0.0517 0.0554 0.0590 0.0683 0.0720 0.0627 0.0535 0.0461 0.0387 0.0314 0.0277 0.0258 0.0221 0.0148 0.0055 0.0018 0.0018 0.0000 0.0000 0.0000 0.0000 0.0000 0.0000 0.0000 0.0000 0.0000 0.0000 0.0000 0.0000 0.0000 0.0000 0.0000 0.0000 0.0000 0.0000 0.0000 0.0000 0.0000 0.0000 0.0000 0.0000 0.0000 0.0000 0.0000 0.0000 0.0000 0.0000 0.0000 0.0000 0.0000 0.0000 0.0000 0.0000 0.0000 0.0000 0.0000 0.0000 0.0000 0.0000 0.0000 0.0000 0.0000 0.0000 0.0000 0.0000 0.0000 0.0000 0.0000 0.0000 0.0000 0.0000 0.0000 0.0000 0.0000 0.0000 0.0000 0.0000 0.0000 0.0000 0.0000 0.0000 0.0000 0.0000 0.0000 0.0000 0.0000 0.0000 0.0000 0.0000 0.0000 0.0000 0.0000 0.0000 0.0000 0.0000 0.0000 0.0000 0.0000 0.0000 0.0000 0.0000 0.0000 0.0000 0.0000 0.0000 0.0000 0.0000 0.0000 0.0000 0.0000 0.0000 0.0000 0.0000 0.0000 0.0000 0.0000 0.0000 0.0000 0.0000 0.0000 0.0000 0.0000 0.0000 0.0000 0.0000 0.0000 0.0000 0.0000 0.0000 0.0000 0.0000 0.0000 0.0000 0.0000 0.0000 0.0000 0.0000 0.0000 0.0000 0.0000 0.0000 0.0000 0.0000 0.0000 0.0000 0.0000 0.0000 0.0000 0.0000 0.0000 0.0000 0.0000 0.0000 0.0000 0.0000 0.0000 0.0000 0.0000 0.0000 0.0000 0.0000 0.0000 0.0000 0.0000 0.0000 0.0000 0.0000 0.0000 0.0000 0.0000 0.0000 0.0000 0.0000 0.0000 0.0000 0.0000 0.0000 0.0000 0.0000 0.0000 0.0000 0.0000 0.0000 0.0000 0.0000 0.0000 0.0000 0.0000 0.0000 0.0000 0.0000 0.0000 0.0000 0.0000 0.0000 0.0000 0.0000 0.0000 0.0000 0.0000 0.0000 0.0000 0.0000 0.0000 0.0000 0.0000 0.0000 0.0000 0.0000 0.0000 0.0000 0.0000 0.0000 0.0000 0.0000 0.0000 0.0000 0.0000 0.0000 0.0000 0.0000 0.0000 0.0000 0.0000 0.0000 0.0000 0.0000 0.0000 0.0000 0.0000 0.0000 0.0000 0.0000 0.0000 0.0000 0.0000 0.0000 0.0000
0.0535 0.0554 0.0535 0.0517 0.0517 0.0535 0.0554 0.0572 0.0590 0.0590 0.0572 0.0535 0.0517 0.0517 0.0554 0.0609 0.0664 0.0738 0.0775 0.0830 0.0886 0.0923 0.0978 0.1033 0.1125 0.1181 0.1236 0.1255 0.1273 0.1310 0.1347 0.1347 0.1347 0.1402 0.1550 0.1661 0.1734 0.1808 0.1956 0.2177 0.2343 0.2546 0.2749 0.3007 0.3247 0.3487 0.3727 0.3838 0.3875 0.4004 0.4114 0.4244 0.4317 0.4317 0.4336 0.4317 0.4244 0.4133 0.4041 0.3967 0.3911 0.3893 0.3856 0.3801 0.3745 0.3653 0.3616 0.3708 0.3893 0.4114 0.4280 0.4373 0.4428 0.4483 0.4465 0.4391 0.4299 0.4207 0.4188 0.4244 0.4262 0.4225 0.4096 0.3948 0.3801 0.3653 0.3635 0.3764 0.3985 0.4170 0.4354 0.4373 0.4299 0.4170 0.4041 0.3875 0.3764 0.3764 0.3856 0.4022 0.4188 0.4299 0.4410 0.4373 0.4317 0.4336 0.4391 0.4576 0.4723 0.4797 0.4889 0.5000 0.5092 0.5240 0.5424 0.5609 0.5701 0.5756 0.5830 0.5923 0.5996 0.6033 0.5978 0.5978 0.5978 0.6033 0.6107 0.6144 0.6125 0.6052 0.5978 0.5923 0.5867 0.5793 0.5701 0.5590 0.5480 0.5406 0.5351 0.5277 0.5258 0.5221 0.5129 0.5055 0.5018 0.4908 0.4760 0.4539 0.4299 0.4114 0.3948 0.3838 0.3690 0.3542 0.3358 0.3155 0.3007 0.2823 0.2638 0.2528 0.2472 0.2435 0.2454 0.2472 0.2454 0.2435 0.2343 0.2232 0.2140 0.1974 0.1790 0.1605 0.1494 0.1421 0.1365 0.1328 0.1292 0.1255 0.1199 0.1107 0.1015 0.0941 0.0830 0.0701 0.0609 0.0535 0.0498 0.0535 0.0590 0.0646 0.0720 0.0793 0.0830 0.0775 0.0683 0.0590 0.0480 0.0369 0.0351 0.0332 0.0295 0.0221 0.0111 0.0018 0.0018 0.0018 0.0000 0.0000 0.0000 0.0000 0.0000 0.0000 0.0000 0.0000 0.0000 0.0000 0.0000 0.0000 0.0000 0.0000 0.0000 0.0000 0.0000 0.0000 0.0000 0.0000 0.0000 0.0000 0.0000 0.0000 0.0000 0.0000 0.0000 0.0000 0.0000 0.0000 0.0000 0.0000 0.0000 0.0000 0.0000 0.0000 0.0000 0.0000 0.0000 0.0000 0.0000 0.0000 0.0000 0.0000 0.0000 0.0000 0.0000 0.0000 0.0000 0.0000 0.0000 0.0000 0.0000 0.0000 0.0000 0.0000 0.0000 0.0000 0.0000 0.0000 0.0000 0.0000 0.0000 0.0000 0.0000 0.0000 0.0000 0.0000 0.0000 0.0000 0.0000 0.0000 0.0000 0.0000 0.0000 0.0000 0.0000 0.0000 0.0000 0.0000 0.0000 0.0000 0.0000 0.0000 0.0000 0.0000 0.0000 0.0000 0.0000 0.0000 0.0000 0.0000 0.0000 0.0000 0.0000 0.0000 0.0000 0.0000 0.0000 0.0000 0.0000 0.0000 0.0000 0.0000 0.0000 0.0000 0.0000 0.0000 0.0000 0.0000 0.0000 0.0000 0.0000 0.0000 0.0000 0.0000 0.0000 0.0000 0.0000 0.0000 0.0000 0.0000 0.0000 0.0000 0.0000 0.0000 0.0000 0.0000 0.0000 0.0000 0.0000 0.0000 0.0000 0.0000 0.0000 0.0000 0.0000 0.0000 0.0000 0.0000 0.0000 0.0000 0.0000 0.0000 0.0000 0.0000 0.0000 0.0000 0.0000 0.0000 0.0000 0.0000 0.0000 0.0000 0.0000 0.0000 0.0000 0.0000 0.0000 0.0000 0.0000 0.0000 0.0000 0.0000 0.0000 0.0000 0.0000 0.0000 0.0000 0.0000 0.0000 0.0000 0.0000 0.0000 0.0000 0.0000 0.0000 0.0000 0.0000 0.0000 0.0000 0.0000 0.0000 0.0000 0.0000 0.0000 0.0000 0.0000 0.0000 0.0000 0.0000 0.0000 0.0000 0.0000 0.0000 0.0000 0.0000 0.0000 0.0000 0.0000 0.0000 0.0000 0.0000 0.0000 0.0000 0.0000 0.0000 0.0000 0.0000 0.0000 0.0000 0.0000 0.0000 0.0000 0.0000 0.0000 0.0000 0.0000 0.0000 0.0000
0.0627 0.0646 0.0646 0.0590 0.0609 0.0646 0.0646 0.0664 0.0664 0.0646 0.0627 0.0609 0.0609 0.0646 0.0720 0.0756 0.0775 0.0793 0.0830 0.0867 0.0923 0.0978 0.1015 0.1070 0.1144 0.1255 0.1347 0.1384 0.1365 0.1402 0.1439 0.1476 0.1494 0.1513 0.1568 0.1642 0.1679 0.1753 0.1882 0.2085 0.2306 0.2491 0.2749 0.3026 0.3321 0.3579 0.3801 0.3985 0.4133 0.4299 0.4502 0.4649 0.4668 0.4705 0.4668 0.4594 0.4483 0.4391 0.4317 0.4188 0.4114 0.4096 0.4041 0.3948 0.3875 0.3801 0.3764 0.3893 0.4096 0.4280 0.4391 0.4502 0.4594 0.4631 0.4631 0.4539 0.4410 0.4299 0.4299 0.4354 0.4391 0.4354 0.4244 0.4059 0.3911 0.3745 0.3672 0.3782 0.4004 0.4262 0.4410 0.4465 0.4410 0.4299 0.4151 0.3985 0.3875 0.3801 0.3875 0.4022 0.4207 0.4428 0.4576 0.4613 0.4576 0.4557 0.4594 0.4705 0.4871 0.5055 0.5185 0.5277 0.5351 0.5480 0.5664 0.5812 0.5904 0.5959 0.6015 0.6089 0.6162 0.6199 0.6181 0.6162 0.6162 0.6162 0.6162 0.6144 0.6107 0.6070 0.5978 0.5867 0.5775 0.5720 0.5627 0.5535 0.5480 0.5406 0.5295 0.5221 0.5203 0.5166 0.5092 0.5000 0.4889 0.4742 0.4502 0.4299 0.4096 0.3911 0.3801 0.3672 0.3487 0.3303 0.3155 0.2970 0.2768 0.2601 0.2528 0.2454 0.2399 0.2362 0.2362 0.2362 0.2362 0.2325 0.2269 0.2196 0.2085 0.1919 0.1716 0.1568 0.1458 0.1402 0.1365 0.1328 0.1255 0.1199 0.1125 0.1033 0.0959 0.0904 0.0775 0.0701 0.0627 0.0572 0.0554 0.0554 0.0646 0.0756 0.0867 0.0923 0.0941 0.0904 0.0775 0.0664 0.0554 0.0424 0.0369 0.0351 0.0314 0.0240 0.0166 0.0092 0.0037 0.0018 0.0018 0.0018 0.0018 0.0018 0.0018 0.0018 0.0000 0.0000 0.0000 0.0000 0.0000 0.0000 0.0000 0.0000 0.0000 0.0000 0.0000 0.0000 0.0000 0.0000 0.0000 0.0000 0.0000 0.0000 0.0000 0.0000 0.0000 0.0000 0.0000 0.0000 0.0000 0.0000 0.0000 0.0000 0.0000 0.0000 0.0000 0.0000 0.0000 0.0000 0.0000 0.0000 0.0000 0.0000 0.0000 0.0000 0.0000 0.0000 0.0000 0.0000 0.0000 0.0000 0.0000 0.0000 0.0000 0.0000 0.0000 0.0000 0.0000 0.0000 0.0000 0.0000 0.0000 0.0000 0.0000 0.0000 0.0000 0.0000 0.0000 0.0000 0.0000 0.0000 0.0000 0.0000 0.0000 0.0000 0.0000 0.0000 0.0000 0.0000 0.0000 0.0000 0.0000 0.0000 0.0000 0.0000 0.0000 0.0000 0.0000 0.0000 0.0000 0.0000 0.0000 0.0000 0.0000 0.0000 0.0000 0.0000 0.0000 0.0000 0.0000 0.0000 0.0000 0.0000 0.0000 0.0000 0.0000 0.0000 0.0000 0.0000 0.0000 0.0000 0.0000 0.0000 0.0000 0.0000 0.0000 0.0000 0.0000 0.0000 0.0000 0.0000 0.0000 0.0000 0.0000 0.0000 0.0000 0.0000 0.0000 0.0000 0.0000 0.0000 0.0000 0.0000 0.0000 0.0000 0.0000 0.0000 0.0000 0.0000 0.0000 0.0000 0.0000 0.0000 0.0000 0.0000 0.0000 0.0000 0.0000 0.0000 0.0000 0.0000 0.0000 0.0000 0.0000 0.0000 0.0000 0.0000 0.0000 0.0000 0.0000 0.0000 0.0000 0.0000 0.0000 0.0000 0.0000 0.0000 0.0000 0.0000 0.0000 0.0000 0.0000 0.0000 0.0000 0.0000 0.0000 0.0000 0.0000 0.0000 0.0000 0.0000 0.0000 0.0000 0.0000 0.0000 0.0000 0.0000 0.0000 0.0000 0.0000 0.0000 0.0000 0.0000 0.0000 0.0000 0.0000 0.0000 0.0000 0.0000 0.0000 0.0000 0.0000 0.0000 0.0000 0.0000 0.0000 0.0000 0.0000 0.0000 0.0000 0.0000 0.0000 0.0000 0.0000 0.0000 0.0000 0.0000 0.0000 0.0000
0.0738 0.0775 0.0775 0.0756 0.0775 0.0775 0.0775 0.0756 0.0738 0.0720 0.0701 0.0701 0.0701 0.0738 0.0793 0.0812 0.0830 0.0849 0.0867 0.0941 0.1015 0.1052 0.1070 0.1125 0.1199 0.1292 0.1384 0.1513 0.1605 0.1642 0.1716 0.1771 0.1771 0.1734 0.1716 0.1697 0.1679 0.1716 0.1863 0.2048 0.2251 0.2472 0.2694 0.2989 0.3321 0.3653 0.3911 0.4151 0.4354 0.4557 0.4705 0.4779 0.4815 0.4834 0.4797 0.4779 0.4705 0.4668 0.4594 0.4520 0.4446 0.4446 0.4428 0.4317 0.4170 0.4041 0.4059 0.4151 0.4299 0.4410 0.4502 0.4631 0.4705 0.4742 0.4705 0.4631 0.4520 0.4446 0.4446 0.4502 0.4520 0.4446 0.4317 0.4151 0.3985 0.3819 0.3764 0.3856 0.4077 0.4280 0.4446 0.4539 0.4502 0.4373 0.4244 0.4133 0.4022 0.3948 0.3985 0.4096 0.4280 0.4465 0.4668 0.4797 0.4815 0.4852 0.4852 0.4945 0.5092 0.5221 0.5369 0.5480 0.5572 0.5701 0.5867 0.5996 0.6070 0.6162 0.6218 0.6255 0.6292 0.6347 0.6347 0.6328 0.6292 0.6236 0.6162 0.6070 0.6033 0.5978 0.5904 0.5775 0.5664 0.5590 0.5535 0.5443 0.5314 0.5185 0.5129 0.5074 0.5037 0.4945 0.4871 0.4742 0.4613 0.4428 0.4299 0.4133 0.3948 0.3801 0.3653 0.3506 0.3321 0.3118 0.2952 0.2804 0.2620 0.2491 0.2454 0.2399 0.2306 0.2288 0.2269 0.2251 0.2251 0.2232 0.2196 0.2140 0.2011 0.1827 0.1679 0.1568 0.1439 0.1365 0.1328 0.1273 0.1199 0.1107 0.1052 0.0959 0.0923 0.0849 0.0756 0.0701 0.0664 0.0627 0.0609 0.0646 0.0756 0.0867 0.0959 0.0996 0.0996 0.0923 0.0775 0.0701 0.0572 0.0480 0.0424 0.0406 0.0351 0.0277 0.0221 0.0203 0.0148 0.0092 0.0037 0.0000 -0.0037 -0.0037 -0.0037 0.0018 0.0000 0.0000 0.0000 0.0000 0.0000 0.0000 0.0000 0.0000 0.0000 0.0000 0.0000 0.0000 0.0000 0.0000 0.0000 0.0000 0.0000 0.0000 0.0000 0.0000 0.0000 0.0000 0.0000 0.0000 0.0000 0.0000 0.0000 0.0000 0.0000 0.0000 0.0000 0.0000 0.0000 0.0000 0.0000 0.0000 0.0000 0.0000 0.0000 0.0000 0.0000 0.0000 0.0000 0.0000 0.0000 0.0000 0.0000 0.0000 0.0000 0.0000 0.0000 0.0000 0.0000 0.0000 0.0000 0.0000 0.0000 0.0000 0.0000 0.0000 0.0000 0.0000 0.0000 0.0000 0.0000 0.0000 0.0000 0.0000 0.0000 0.0000 0.0000 0.0000 0.0000 0.0000 0.0000 0.0000 0.0000 0.0000 0.0000 0.0000 0.0000 0.0000 0.0000 0.0000 0.0000 0.0000 0.0000 0.0000 0.0000 0.0000 0.0000 0.0000 0.0000 0.0000 0.0000 0.0000 0.0000 0.0000 0.0000 0.0000 0.0000 0.0000 0.0000 0.0000 0.0000 0.0000 0.0000 0.0000 0.0000 0.0000 0.0000 0.0000 0.0000 0.0000 0.0000 0.0000 0.0000 0.0000 0.0000 0.0000 0.0000 0.0000 0.0000 0.0000 0.0000 0.0000 0.0000 0.0000 0.0000 0.0000 0.0000 0.0000 0.0000 0.0000 0.0000 0.0000 0.0000 0.0000 0.0000 0.0000 0.0000 0.0000 0.0000 0.0000 0.0000 0.0000 0.0000 0.0000 0.0000 0.0000 0.0000 0.0000 0.0000 0.0000 0.0000 0.0000 0.0000 0.0000 0.0000 0.0000 0.0000 0.0000 0.0000 0.0000 0.0000 0.0000 0.0000 0.0000 0.0000 0.0000 0.0000 0.0000 0.0000 0.0000 0.0000 0.0000 0.0000 0.0000 0.0000 0.0000 0.0000 0.0000 0.0000 0.0000 0.0000 0.0000 0.0000 0.0000 0.0000 0.0000 0.0000 0.0000 0.0000 0.0000 0.0000 0.0000 0.0000 0.0000 0.0000 0.0000 0.0000 0.0000 0.0000 0.0000 0.0000 0.0000 0.0000 0.0000 0.0000 0.0000 0.0000 0.0000 0.0000 0.0000
0.0830 0.0867 0.0867 0.0867 0.0849 0.0867 0.0867 0.0849 0.0812 0.0812 0.0793 0.0793 0.0793 0.0793 0.0812 0.0830 0.0867 0.0904 0.0959 0.1052 0.1144 0.1218 0.1255 0.1273 0.1328 0.1384 0.1531 0.1716 0.1900 0.1974 0.2011 0.2030 0.2030 0.2048 0.2048 0.1937 0.1863 0.1845 0.1937 0.2085 0.2251 0.2435 0.2657 0.2970 0.3303 0.3616 0.3911 0.4151 0.4373 0.4576 0.4723 0.4797 0.4852 0.4852 0.4834 0.4834 0.4815 0.4779 0.4760 0.4760 0.4742 0.4723 0.4705 0.4594 0.4446 0.4299 0.4225 0.4336 0.4428 0.4520 0.4613 0.4668 0.4723 0.4742 0.4723 0.4668 0.4594 0.4557 0.4594 0.4613 0.4613 0.4539 0.4410 0.4225 0.4041 0.3893 0.3819 0.3911 0.4059 0.4262 0.4465 0.4594 0.4594 0.4483 0.4336 0.4225 0.4151 0.4096 0.4077 0.4151 0.4280 0.4465 0.4668 0.4852 0.4982 0.5037 0.5111 0.5203 0.5314 0.5424 0.5535 0.5664 0.5830 0.5941 0.6033 0.6125 0.6218 0.6273 0.6365 0.6402 0.6458 0.6458 0.6421 0.6384 0.6310 0.6236 0.6107 0.6015 0.5959 0.5886 0.5812 0.5683 0.5572 0.5517 0.5424 0.5277 0.5111 0.5018 0.4945 0.4889 0.4815 0.4742 0.4594 0.4483 0.4354 0.4262 0.4133 0.3967 0.3819 0.3690 0.3487 0.3339 0.3192 0.3007 0.2860 0.2712 0.2528 0.2435 0.2399 0.2343 0.2325 0.2232 0.2159 0.2140 0.2122 0.2103 0.2085 0.2011 0.1863 0.1716 0.1587 0.1494 0.1421 0.1310 0.1236 0.1181 0.1125 0.1033 0.0959 0.0904 0.0867 0.0793 0.0720 0.0701 0.0701 0.0664 0.0683 0.0738 0.0830 0.0941 0.0996 0.1015 0.1015 0.0959 0.0867 0.0756 0.0646 0.0554 0.0480 0.0461 0.0424 0.0351 0.0295 0.0277 0.0240 0.0166 0.0092 0.0037 0.0000 -0.0037 -0.0018 0.0018 0.0018 0.0018 0.0000 0.0000 0.0000 0.0000 0.0000 0.0000 0.0000 0.0000 0.0000 0.0000 0.0000 0.0000 0.0000 0.0000 0.0000 0.0000 0.0000 0.0000 0.0000 0.0000 0.0000 0.0000 0.0000 0.0000 0.0000 0.0000 0.0000 0.0000 0.0000 0.0000 0.0000 0.0000 0.0000 0.0000 0.0000 0.0000 0.0000 0.0000 0.0000 0.0000 0.0000 0.0000 0.0000 0.0000 0.0000 0.0000 0.0000 0.0000 0.0000 0.0000 0.0000 0.0000 0.0000 0.0000 0.0000 0.0000 0.0000 0.0000 0.0000 0.0000 0.0000 0.0000 0.0000 0.0000 0.0000 0.0000 0.0000 0.0000 0.0000 0.0000 0.0000 0.0000 0.0000 0.0000 0.0000 0.0000 0.0000 0.0000 0.0000 0.0000 0.0000 0.0000 0.0000 0.0000 0.0000 0.0000 0.0000 0.0000 0.0000 0.0000 0.0000 0.0000 0.0000 0.0000 0.0000 0.0000 0.0000 0.0000 0.0000 0.0000 0.0000 0.0000 0.0000 0.0000 0.0000 0.0000 0.0000 0.0000 0.0000 0.0000 0.0000 0.0000 0.0000 0.0000 0.0000 0.0000 0.0000 0.0000 0.0000 0.0000 0.0000 0.0000 0.0000 0.0000 0.0000 0.0000 0.0000 0.0000 0.0000 0.0000 0.0000 0.0000 0.0000 0.0000 0.0000 0.0000 0.0000 0.0000 0.0000 0.0000 0.0000 0.0000 0.0000 0.0000 0.0000 0.0000 0.0000 0.0000 0.0000 0.0000 0.0000 0.0000 0.0000 0.0000 0.0000 0.0000 0.0000 0.0000 0.0000 0.0000 0.0000 0.0000 0.0000 0.0000 0.0000 0.0000 0.0000 0.0000 0.0000 0.0000 0.0000 0.0000 0.0000 0.0000 0.0000 0.0000 0.0000 0.0000 0.0000 0.0000 0.0000 0.0000 0.0000 0.0000 0.0000 0.0000 0.0000 0.0000 0.0000 0.0000 0.0000 0.0000 0.0000 0.0000 0.0000 0.0000 0.0000 0.0000 0.0000 0.0000 0.0000 0.0000 0.0000 0.0000 0.0000 0.0000 0.0000 0.0000 0.0000 0.0000 0.0000 0.0000
0.0886 0.0923 0.0923 0.0923 0.0904 0.0923 0.0923 0.0904 0.0886 0.0886 0.0886 0.0886 0.0886 0.0867 0.0867 0.0867 0.0923 0.0996 0.1107 0.1218 0.1347 0.1421 0.1439 0.1476 0.1513 0.1605 0.1697 0.1845 0.1974 0.2066 0.2085 0.2122 0.2196 0.2288 0.2325 0.2325 0.2232 0.2177 0.2177 0.2214 0.2306 0.2454 0.2620 0.2878 0.3210 0.3506 0.3745 0.3985 0.4225 0.4483 0.4649 0.4742 0.4797 0.4815 0.4797 0.4797 0.4779 0.4779 0.4760 0.4779 0.4815 0.4815 0.4797 0.4705 0.4557 0.4410 0.4336 0.4354 0.4428 0.4557 0.4649 0.4723 0.4742 0.4742 0.4742 0.4723 0.4705 0.4686 0.4686 0.4668 0.4649 0.4576 0.4465 0.4280 0.4133 0.3948 0.3856 0.3911 0.4041 0.4207 0.4410 0.4613 0.4686 0.4631 0.4539 0.4428 0.4336 0.4244 0.4225 0.4262 0.4354 0.4483 0.4668 0.4852 0.5055 0.5185 0.5314 0.5424 0.5517 0.5590 0.5701 0.5849 0.5996 0.6107 0.6162 0.6236 0.6292 0.6384 0.6458 0.6513 0.6531 0.6476 0.6402 0.6310 0.6218 0.6144 0.6033 0.5941 0.5867 0.5812 0.5720 0.5572 0.5461 0.5369 0.5277 0.5129 0.4982 0.4834 0.4723 0.4631 0.4594 0.4520 0.4391 0.4244 0.4151 0.4059 0.3911 0.3745 0.3653 0.3487 0.3358 0.3210 0.3044 0.2915 0.2749 0.2565 0.2435 0.2362 0.2362 0.2380 0.2343 0.2251 0.2140 0.2048 0.1993 0.1956 0.1937 0.1845 0.1734 0.1568 0.1476 0.1402 0.1347 0.1273 0.1218 0.1162 0.1070 0.0978 0.0886 0.0849 0.0812 0.0738 0.0664 0.0683 0.0701 0.0720 0.0756 0.0812 0.0886 0.0959 0.1015 0.1033 0.1033 0.1015 0.0959 0.0849 0.0738 0.0646 0.0572 0.0498 0.0461 0.0406 0.0351 0.0314 0.0277 0.0221 0.0148 0.0074 0.0018 0.0000 -0.0037 -0.0018 0.0000 0.0018 0.0000 0.0000 0.0000 0.0000 0.0000 0.0000 0.0000 0.0000 0.0000 0.0000 0.0000 0.0000 0.0000 0.0000 0.0000 0.0000 0.0000 0.0000 0.0000 0.0000 0.0000 0.0000 0.0000 0.0000 0.0000 0.0000 0.0000 0.0000 0.0000 0.0000 0.0000 0.0000 0.0000 0.0000 0.0000 0.0000 0.0000 0.0000 0.0000 0.0000 0.0000 0.0000 0.0000 0.0000 0.0000 0.0000 0.0000 0.0000 0.0000 0.0000 0.0000 0.0000 0.0000 0.0000 0.0000 0.0000 0.0000 0.0000 0.0000 0.0000 0.0000 0.0000 0.0000 0.0000 0.0000 0.0000 0.0000 0.0000 0.0000 0.0000 0.0000 0.0000 0.0000 0.0000 0.0000 0.0000 0.0000 0.0000 0.0000 0.0000 0.0000 0.0000 0.0000 0.0000 0.0000 0.0000 0.0000 0.0000 0.0000 0.0000 0.0000 0.0000 0.0000 0.0000 0.0000 0.0000 0.0000 0.0000 0.0000 0.0000 0.0000 0.0000 0.0000 0.0000 0.0000 0.0000 0.0000 0.0000 0.0000 0.0000 0.0000 0.0000 0.0000 0.0000 0.0000 0.0000 0.0000 0.0000 0.0000 0.0000 0.0000 0.0000 0.0000 0.0000 0.0000 0.0000 0.0000 0.0000 0.0000 0.0000 0.0000 0.0000 0.0000 0.0000 0.0000 0.0000 0.0000 0.0000 0.0000 0.0000 0.0000 0.0000 0.0000 0.0000 0.0000 0.0000 0.0000 0.0000 0.0000 0.0000 0.0000 0.0000 0.0000 0.0000 0.0000 0.0000 0.0000 0.0000 0.0000 0.0000 0.0000 0.0000 0.0000 0.0000 0.0000 0.0000 0.0000 0.0000 0.0000 0.0000 0.0000 0.0000 0.0000 0.0000 0.0000 0.0000 0.0000 0.0000 0.0000 0.0000 0.0000 0.0000 0.0000 0.0000 0.0000 0.0000 0.0000 0.0000 0.0000 0.0000 0.0000 0.0000 0.0000 0.0000 0.0000 0.0000 0.0000 0.0000 0.0000 0.0000 0.0000 0.0000 0.0000 0.0000 0.0000 0.0000 0.0000 0.0000 0.0000 0.0000 0.0000 0.0000
0.0941 0.0959 0.0978 0.0996 0.0978 0.0959 0.0941 0.0941 0.0923 0.0923 0.0923 0.0941 0.0941 0.0959 0.0959 0.0959 0.0996 0.1070 0.1218 0.1347 0.1476 0.1550 0.1642 0.1697 0.1753 0.1771 0.1790 0.1863 0.1956 0.2048 0.2159 0.2251 0.2362 0.2491 0.2583 0.2565 0.2546 0.2528 0.2509 0.2509 0.2528 0.2546 0.2620 0.2786 0.3007 0.3266 0.3487 0.3764 0.4022 0.4280 0.4465 0.4576 0.4631 0.4649 0.4668 0.4686 0.4705 0.4705 0.4705 0.4742 0.4797 0.4834 0.4834 0.4797 0.4705 0.4539 0.4446 0.4373 0.4410 0.4539 0.4649 0.4742 0.4797 0.4815 0.4815 0.4815 0.4797 0.4779 0.4760 0.4760 0.4705 0.4613 0.4520 0.4410 0.4262 0.4096 0.3967 0.3948 0.4077 0.4225 0.4428 0.4631 0.4742 0.4742 0.4668 0.4576 0.4502 0.4410 0.4373 0.4391 0.4446 0.4557 0.4723 0.4908 0.5092 0.5258 0.5424 0.5554 0.5646 0.5720 0.5830 0.5959 0.6070 0.6162 0.6218 0.6292 0.6365 0.6439 0.6494 0.6513 0.6494 0.6439 0.6365 0.6255 0.6162 0.6052 0.5959 0.5867 0.5756 0.5664 0.5535 0.5406 0.5295 0.5203 0.5129 0.4963 0.4779 0.4613 0.4483 0.4391 0.4317 0.4244 0.4077 0.3930 0.3819 0.3727 0.3561 0.3469 0.3395 0.3284 0.3173 0.3081 0.2934 0.2804 0.2638 0.2472 0.2380 0.2325 0.2343 0.2325 0.2288 0.2196 0.2085 0.1993 0.1900 0.1845 0.1790 0.1753 0.1624 0.1476 0.1402 0.1365 0.1310 0.1273 0.1218 0.1162 0.1052 0.0941 0.0886 0.0830 0.0812 0.0738 0.0720 0.0720 0.0812 0.0849 0.0849 0.0886 0.0959 0.1052 0.1107 0.1107 0.1070 0.1070 0.1015 0.0904 0.0793 0.0738 0.0664 0.0590 0.0517 0.0461 0.0369 0.0332 0.0295 0.0240 0.0185 0.0148 0.0148 0.0111 0.0092 0.0018 0.0018 0.0037 0.0055 0.0000 0.0000 0.0000 0.0000 0.0000 0.0000 0.0000 0.0000 0.0000 0.0000 0.0000 0.0000 0.0000 0.0000 0.0000 0.0000 0.0000 0.0000 0.0000 0.0000 0.0000 0.0000 0.0000 0.0000 0.0000 0.0000 0.0000 0.0000 0.0000 0.0000 0.0000 0.0000 0.0000 0.0000 0.0000 0.0000 0.0000 0.0000 0.0000 0.0000 0.0000 0.0000 0.0000 0.0000 0.0000 0.0000 0.0000 0.0000 0.0000 0.0000 0.0000 0.0000 0.0000 0.0000 0.0000 0.0000 0.0000 0.0000 0.0000 0.0000 0.0000 0.0000 0.0000 0.0000 0.0000 0.0000 0.0000 0.0000 0.0000 0.0000 0.0000 0.0000 0.0000 0.0000 0.0000 0.0000 0.0000 0.0000 0.0000 0.0000 0.0000 0.0000 0.0000 0.0000 0.0000 0.0000 0.0000 0.0000 0.0000 0.0000 0.0000 0.0000 0.0000 0.0000 0.0000 0.0000 0.0000 0.0000 0.0000 0.0000 0.0000 0.0000 0.0000 0.0000 0.0000 0.0000 0.0000 0.0000 0.0000 0.0000 0.0000 0.0000 0.0000 0.0000 0.0000 0.0000 0.0000 0.0000 0.0000 0.0000 0.0000 0.0000 0.0000 0.0000 0.0000 0.0000 0.0000 0.0000 0.0000 0.0000 0.0000 0.0000 0.0000 0.0000 0.0000 0.0000 0.0000 0.0000 0.0000 0.0000 0.0000 0.0000 0.0000 0.0000 0.0000 0.0000 0.0000 0.0000 0.0000 0.0000 0.0000 0.0000 0.0000 0.0000 0.0000 0.0000 0.0000 0.0000 0.0000 0.0000 0.0000 0.0000 0.0000 0.0000 0.0000 0.0000 0.0000 0.0000 0.0000 0.0000 0.0000 0.0000 0.0000 0.0000 0.0000 0.0000 0.0000 0.0000 0.0000 0.0000 0.0000 0.0000 0.0000 0.0000 0.0000 0.0000 0.0000 0.0000 0.0000 0.0000 0.0000 0.0000 0.0000 0.0000 0.0000 0.0000 0.0000 0.0000 0.0000 0.0000 0.0000 0.0000 0.0000 0.0000 0.0000 0.0000 0.0000 0.0000 0.0000 0.0000 0.0000
0.0996 0.1033 0.1070 0.1070 0.1052 0.1033 0.1033 0.0996 0.0996 0.0978 0.0978 0.0978 0.0996 0.1015 0.1015 0.1015 0.1052 0.1162 0.1310 0.1439 0.1550 0.1661 0.1771 0.1808 0.1845 0.1845 0.1845 0.1882 0.1974 0.2103 0.2232 0.2362 0.2528 0.2694 0.2804 0.2823 0.2804 0.2768 0.2749 0.2731 0.2731 0.2804 0.2915 0.3026 0.3137 0.3266 0.3469 0.3727 0.3948 0.4133 0.4317 0.4428 0.4483 0.4520 0.4539 0.4576 0.4613 0.4631 0.4631 0.4649 0.4742 0.4779 0.4797 0.4779 0.4723 0.4649 0.4539 0.4428 0.4391 0.4465 0.4613 0.4723 0.4797 0.4852 0.4871 0.4889 0.4871 0.4871 0.4852 0.4834 0.4797 0.4705 0.4594 0.4502 0.4428 0.4299 0.4151 0.4096 0.4170 0.4354 0.4576 0.4760 0.4889 0.4908 0.4889 0.4797 0.4705 0.4649 0.4613 0.4594 0.4613 0.4686 0.4815 0.4982 0.5148 0.5295 0.5498 0.5683 0.5812 0.5923 0.6033 0.6107 0.6144 0.6199 0.6255 0.6310 0.6384 0.6439 0.6458 0.6458 0.6458 0.6439 0.6384 0.6292 0.6199 0.6070 0.5941 0.5812 0.5664 0.5535 0.5406 0.5277 0.5148 0.5055 0.4945 0.4797 0.4613 0.4410 0.4244 0.4133 0.4022 0.3893 0.3782 0.3672 0.3561 0.3432 0.3321 0.3229 0.3173 0.3081 0.2989 0.2915 0.2786 0.2657 0.2509 0.2399 0.2325 0.2288 0.2251 0.2196 0.2140 0.2085 0.2030 0.1937 0.1845 0.1753 0.1716 0.1661 0.1587 0.1513 0.1439 0.1384 0.1365 0.1328 0.1273 0.1144 0.1015 0.0941 0.0923 0.0904 0.0886 0.0867 0.0867 0.0904 0.0978 0.0978 0.0959 0.0996 0.1070 0.1144 0.1199 0.1181 0.1144 0.1125 0.1070 0.0941 0.0886 0.0812 0.0738 0.0664 0.0590 0.0517 0.0424 0.0369 0.0314 0.0258 0.0221 0.0258 0.0258 0.0277 0.0221 0.0148 0.0018 0.0000 0.0018 0.0000 0.0000 0.0000 0.0000 0.0000 0.0000 0.0000 0.0000 0.0000 0.0000 0.0000 0.0000 0.0000 0.0000 0.0000 0.0000 0.0000 0.0000 0.0000 0.0000 0.0000 0.0000 0.0000 0.0000 0.0000 0.0000 0.0000 0.0000 0.0000 0.0000 0.0000 0.0000 0.0000 0.0000 0.0000 0.0000 0.0000 0.0000 0.0000 0.0000 0.0000 0.0000 0.0000 0.0000 0.0000 0.0000 0.0000 0.0000 0.0000 0.0000 0.0000 0.0000 0.0000 0.0000 0.0000 0.0000 0.0000 0.0000 0.0000 0.0000 0.0000 0.0000 0.0000 0.0000 0.0000 0.0000 0.0000 0.0000 0.0000 0.0000 0.0000 0.0000 0.0000 0.0000 0.0000 0.0000 0.0000 0.0000 0.0000 0.0000 0.0000 0.0000 0.0000 0.0000 0.0000 0.0000 0.0000 0.0000 0.0000 0.0000 0.0000 0.0000 0.0000 0.0000 0.0000 0.0000 0.0000 0.0000 0.0000 0.0000 0.0000 0.0000 0.0000 0.0000 0.0000 0.0000 0.0000 0.0000 0.0000 0.0000 0.0000 0.0000 0.0000 0.0000 0.0000 0.0000 0.0000 0.0000 0.0000 0.0000 0.0000 0.0000 0.0000 0.0000 0.0000 0.0000 0.0000 0.0000 0.0000 0.0000 0.0000 0.0000 0.0000 0.0000 0.0000 0.0000 0.0000 0.0000 0.0000 0.0000 0.0000 0.0000 0.0000 0.0000 0.0000 0.0000 0.0000 0.0000 0.0000 0.0000 0.0000 0.0000 0.0000 0.0000 0.0000 0.0000 0.0000 0.0000 0.0000 0.0000 0.0000 0.0000 0.0000 0.0000 0.0000 0.0000 0.0000 0.0000 0.0000 0.0000 0.0000 0.0000 0.0000 0.0000 0.0000 0.0000 0.0000 0.0000 0.0000 0.0000 0.0000 0.0000 0.0000 0.0000 0.0000 0.0000 0.0000 0.0000 0.0000 0.0000 0.0000 0.0000 0.0000 0.0000 0.0000 0.0000 0.0000 0.0000 0.0000 0.0000 0.0000 0.0000 0.0000 0.0000 0.0000 0.0000 0.0000 0.0000 0.0000 0.0000 0.0000
0.1052 0.1089 0.1107 0.1107 0.1107 0.1107 0.1107 0.1070 0.1052 0.1033 0.1033 0.1052 0.1070 0.1089 0.1089 0.1107 0.1181 0.1273 0.1384 0.1494 0.1605 0.1734 0.1845 0.1900 0.1937 0.1937 0.1919 0.1956 0.2048 0.2177 0.2325 0.2472 0.2620 0.2786 0.2915 0.3007 0.3100 0.3081 0.3026 0.3063 0.3100 0.3118 0.3247 0.3450 0.3653 0.3819 0.3930 0.3985 0.4059 0.4151 0.4244 0.4299 0.4354 0.4391 0.4410 0.4465 0.4520 0.4539 0.4576 0.4613 0.4649 0.4723 0.4742 0.4779 0.4760 0.4705 0.4594 0.4483 0.4428 0.4446 0.4576 0.4705 0.4797 0.4871 0.4926 0.4926 0.4945 0.4963 0.4963 0.4963 0.4926 0.4852 0.4742 0.4631 0.4520 0.4428 0.4299 0.4244 0.4280 0.4446 0.4649 0.4834 0.5018 0.5148 0.5185 0.5092 0.5000 0.4908 0.4871 0.4834 0.4834 0.4889 0.4982 0.5092 0.5221 0.5369 0.5572 0.5756 0.5923 0.6089 0.6162 0.6218 0.6236 0.6255 0.6273 0.6365 0.6439 0.6476 0.6494 0.6513 0.6494 0.6458 0.6402 0.6310 0.6199 0.6089 0.5959 0.5812 0.5683 0.5554 0.5369 0.5185 0.5055 0.4889 0.4742 0.4613 0.4446 0.4207 0.4077 0.3930 0.3801 0.3690 0.3598 0.3487 0.3358 0.3229 0.3137 0.3044 0.2989 0.2897 0.2823 0.2731 0.2638 0.2528 0.2435 0.2343 0.2306 0.2269 0.2214 0.2140 0.2085 0.2030 0.1937 0.1863 0.1808 0.1753 0.1697 0.1624 0.1587 0.1550 0.1494 0.1421 0.1402 0.1365 0.1255 0.1107 0.1015 0.0978 0.0978 0.1033 0.1089 0.1070 0.1052 0.1070 0.1089 0.1089 0.1070 0.1107 0.1144 0.1199 0.1236 0.1236 0.1199 0.1162 0.1125 0.1033 0.0959 0.0904 0.0830 0.0701 0.0627 0.0554 0.0498 0.0443 0.0351 0.0277 0.0277 0.0314 0.0314 0.0314 0.0277 0.0185 0.0074 -0.0018 0.0018 0.0018 0.0000 0.0000 0.0000 0.0000 0.0000 0.0000 0.0000 0.0000 0.0000 0.0000 0.0000 0.0000 0.0000 0.0000 0.0000 0.0000 0.0000 0.0000 0.0000 0.0000 0.0000 0.0000 0.0000 0.0000 0.0000 0.0000 0.0000 0.0000 0.0000 0.0000 0.0000 0.0000 0.0000 0.0000 0.0000 0.0000 0.0000 0.0000 0.0000 0.0000 0.0000 0.0000 0.0000 0.0000 0.0000 0.0000 0.0000 0.0000 0.0000 0.0000 0.0000 0.0000 0.0000 0.0000 0.0000 0.0000 0.0000 0.0000 0.0000 0.0000 0.0000 0.0000 0.0000 0.0000 0.0000 0.0000 0.0000 0.0000 0.0000 0.0000 0.0000 0.0000 0.0000 0.0000 0.0000 0.0000 0.0000 0.0000 0.0000 0.0000 0.0000 0.0000 0.0000 0.0000 0.0000 0.0000 0.0000 0.0000 0.0000 0.0000 0.0000 0.0000 0.0000 0.0000 0.0000 0.0000 0.0000 0.0000 0.0000 0.0000 0.0000 0.0000 0.0000 0.0000 0.0000 0.0000 0.0000 0.0000 0.0000 0.0000 0.0000 0.0000 0.0000 0.0000 0.0000 0.0000 0.0000 0.0000 0.0000 0.0000 0.0000 0.0000 0.0000 0.0000 0.0000 0.0000 0.0000 0.0000 0.0000 0.0000 0.0000 0.0000 0.0000 0.0000 0.0000 0.0000 0.0000 0.0000 0.0000 0.0000 0.0000 0.0000 0.0000 0.0000 0.0000 0.0000 0.0000 0.0000 0.0000 0.0000 0.0000 0.0000 0.0000 0.0000 0.0000 0.0000 0.0000 0.0000 0.0000 0.0000 0.0000 0.0000 0.0000 0.0000 0.0000 0.0000 0.0000 0.0000 0.0000 0.0000 0.0000 0.0000 0.0000 0.0000 0.0000 0.0000 0.0000 0.0000 0.0000 0.0000 0.0000 0.0000 0.0000 0.0000 0.0000 0.0000 0.0000 0.0000 0.0000 0.0000 0.0000 0.0000 0.0000 0.0000 0.0000 0.0000 0.0000 0.0000 0.0000 0.0000 0.0000 0.0000 0.0000 0.0000 0.0000 0.0000 0.0000 0.0000 0.0000 0.0000
0.1089 0.1107 0.1125 0.1144 0.1144 0.1144 0.1144 0.1107 0.1070 0.1052 0.1070 0.1107 0.1144 0.1181 0.1199 0.1218 0.1273 0.1347 0.1458 0.1587 0.1716 0.1827 0.1900 0.1974 0.1993 0.1993 0.1974 0.2048 0.2140 0.2251 0.2435 0.2620 0.2786 0.2952 0.3137 0.3303 0.3432 0.3506 0.3506 0.3487 0.3450 0.3469 0.3598 0.3801 0.4077 0.4299 0.4317 0.4336 0.4317 0.4262 0.4244 0.4244 0.4280 0.4336 0.4410 0.4502 0.4539 0.4557 0.4594 0.4613 0.4631 0.4649 0.4705 0.4760 0.4779 0.4742 0.4686 0.4576 0.4483 0.4483 0.4539 0.4668 0.4797 0.4889 0.4963 0.5018 0.5055 0.5074 0.5092 0.5074 0.5074 0.5037 0.4926 0.4815 0.4705 0.4576 0.4483 0.4373 0.4391 0.4520 0.4686 0.4889 0.5111 0.5314 0.5369 0.5351 0.5295 0.5203 0.5111 0.5092 0.5092 0.5092 0.5148 0.5258 0.5387 0.5554 0.5701 0.5849 0.6015 0.6162 0.6255 0.6328 0.6384 0.6384 0.6421 0.6476 0.6531 0.6605 0.6642 0.6642 0.6550 0.6513 0.6439 0.6365 0.6255 0.6162 0.6052 0.5941 0.5830 0.5646 0.5480 0.5314 0.5055 0.4852 0.4668 0.4520 0.4391 0.4170 0.4022 0.3911 0.3764 0.3616 0.3506 0.3358 0.3284 0.3173 0.3137 0.3081 0.3007 0.2841 0.2786 0.2675 0.2583 0.2509 0.2417 0.2343 0.2269 0.2251 0.2196 0.2122 0.2066 0.1993 0.1919 0.1845 0.1808 0.1753 0.1697 0.1642 0.1587 0.1568 0.1494 0.1421 0.1384 0.1347 0.1218 0.1107 0.1070 0.1089 0.1144 0.1218 0.1236 0.1218 0.1199 0.1199 0.1199 0.1181 0.1199 0.1218 0.1255 0.1273 0.1292 0.1273 0.1218 0.1144 0.1107 0.1052 0.0959 0.0904 0.0830 0.0738 0.0664 0.0627 0.0590 0.0517 0.0406 0.0387 0.0369 0.0424 0.0406 0.0369 0.0332 0.0221 0.0111 0.0055 0.0018 0.0018 0.0000 0.0000 0.0000 0.0000 0.0000 0.0000 0.0000 0.0000 0.0000 0.0000 0.0000 0.0000 0.0000 0.0000 0.0000 0.0000 0.0000 0.0000 0.0000 0.0000 0.0000 0.0000 0.0000 0.0000 0.0000 0.0000 0.0000 0.0000 0.0000 0.0000 0.0000 0.0000 0.0000 0.0000 0.0000 0.0000 0.0000 0.0000 0.0000 0.0000 0.0000 0.0000 0.0000 0.0000 0.0000 0.0000 0.0000 0.0000 0.0000 0.0000 0.0000 0.0000 0.0000 0.0000 0.0000 0.0000 0.0000 0.0000 0.0000 0.0000 0.0000 0.0000 0.0000 0.0000 0.0000 0.0000 0.0000 0.0000 0.0000 0.0000 0.0000 0.0000 0.0000 0.0000 0.0000 0.0000 0.0000 0.0000 0.0000 0.0000 0.0000 0.0000 0.0000 0.0000 0.0000 0.0000 0.0000 0.0000 0.0000 0.0000 0.0000 0.0000 0.0000 0.0000 0.0000 0.0000 0.0000 0.0000 0.0000 0.0000 0.0000 0.0000 0.0000 0.0000 0.0000 0.0000 0.0000 0.0000 0.0000 0.0000 0.0000 0.0000 0.0000 0.0000 0.0000 0.0000 0.0000 0.0000 0.0000 0.0000 0.0000 0.0000 0.0000 0.0000 0.0000 0.0000 0.0000 0.0000 0.0000 0.0000 0.0000 0.0000 0.0000 0.0000 0.0000 0.0000 0.0000 0.0000 0.0000 0.0000 0.0000 0.0000 0.0000 0.0000 0.0000 0.0000 0.0000 0.0000 0.0000 0.0000 0.0000 0.0000 0.0000 0.0000 0.0000 0.0000 0.0000 0.0000 0.0000 0.0000 0.0000 0.0000 0.0000 0.0000 0.0000 0.0000 0.0000 0.0000 0.0000 0.0000 0.0000 0.0000 0.0000 0.0000 0.0000 0.0000 0.0000 0.0000 0.0000 0.0000 0.0000 0.0000 0.0000 0.0000 0.0000 0.0000 0.0000 0.0000 0.0000 0.0000 0.0000 0.0000 0.0000 0.0000 0.0000 0.0000 0.0000 0.0000 0.0000 0.0000 0.0000 0.0000 0.0000 0.0000 0.0000 0.0000 0.0000 0.0000 0.0000 0.0000
0.1125 0.1144 0.1162 0.1162 0.1181 0.1181 0.1162 0.1144 0.1125 0.1107 0.1125 0.1162 0.1199 0.1236 0.1273 0.1310 0.1365 0.1421 0.1531 0.1661 0.1734 0.1808 0.1882 0.1956 0.2011 0.2048 0.2066 0.2122 0.2232 0.2380 0.2546 0.2768 0.3007 0.3210 0.3321 0.3450 0.3598 0.3764 0.3819 0.3801 0.3745 0.3745 0.3819 0.3967 0.4170 0.4317 0.4410 0.4428 0.4391 0.4354 0.4317 0.4317 0.4354 0.4391 0.4502 0.4594 0.4631 0.4631 0.4649 0.4668 0.4649 0.4649 0.4668 0.4723 0.4779 0.4742 0.4686 0.4613 0.4539 0.4502 0.4520 0.4613 0.4760 0.4852 0.4945 0.5018 0.5092 0.5129 0.5148 0.5185 0.5203 0.5166 0.5111 0.5018 0.4908 0.4797 0.4686 0.4576 0.4520 0.4594 0.4797 0.5055 0.5277 0.5443 0.5535 0.5535 0.5535 0.5498 0.5443 0.5387 0.5332 0.5332 0.5387 0.5498 0.5627 0.5738 0.5830 0.5959 0.6089 0.6218 0.6347 0.6439 0.6494 0.6531 0.6550 0.6605 0.6661 0.6697 0.6753 0.6734 0.6624 0.6531 0.6476 0.6421 0.6347 0.6181 0.6070 0.5959 0.5867 0.5720 0.5590 0.5369 0.5111 0.4945 0.4779 0.4705 0.4631 0.4428 0.4244 0.4096 0.3948 0.3764 0.3653 0.3579 0.3469 0.3395 0.3339 0.3247 0.3081 0.2970 0.2841 0.2768 0.2675 0.2565 0.2435 0.2306 0.2269 0.2232 0.2196 0.2159 0.2085 0.2011 0.1937 0.1863 0.1790 0.1753 0.1697 0.1642 0.1587 0.1550 0.1476 0.1402 0.1365 0.1328 0.1236 0.1162 0.1199 0.1255 0.1292 0.1347 0.1347 0.1347 0.1347 0.1310 0.1273 0.1273 0.1273 0.1310 0.1347 0.1365 0.1347 0.1292 0.1199 0.1107 0.1052 0.0996 0.0923 0.0849 0.0775 0.0756 0.0738 0.0701 0.0646 0.0590 0.0554 0.0535 0.0572 0.0554 0.0480 0.0424 0.0369 0.0258 0.0185 0.0129 0.0055 0.0018 0.0018 0.0018 0.0000 0.0000 0.0000 0.0000 0.0000 0.0000 0.0000 0.0000 0.0000 0.0000 0.0000 0.0000 0.0000 0.0000 0.0000 0.0000 0.0000 0.0000 0.0000 0.0000 0.0000 0.0000 0.0000 0.0000 0.0000 0.0000 0.0000 0.0000 0.0000 0.0000 0.0000 0.0000 0.0000 0.0000 0.0000 0.0000 0.0000 0.0000 0.0000 0.0000 0.0000 0.0000 0.0000 0.0000 0.0000 0.0000 0.0000 0.0000 0.0000 0.0000 0.0000 0.0000 0.0000 0.0000 0.0000 0.0000 0.0000 0.0000 0.0000 0.0000 0.0000 0.0000 0.0000 0.0000 0.0000 0.0000 0.0000 0.0000 0.0000 0.0000 0.0000 0.0000 0.0000 0.0000 0.0000 0.0000 0.0000 0.0000 0.0000 0.0000 0.0000 0.0000 0.0000 0.0000 0.0000 0.0000 0.0000 0.0000 0.0000 0.0000 0.0000 0.0000 0.0000 0.0000 0.0000 0.0000 0.0000 0.0000 0.0000 0.0000 0.0000 0.0000 0.0000 0.0000 0.0000 0.0000 0.0000 0.0000 0.0000 0.0000 0.0000 0.0000 0.0000 0.0000 0.0000 0.0000 0.0000 0.0000 0.0000 0.0000 0.0000 0.0000 0.0000 0.0000 0.0000 0.0000 0.0000 0.0000 0.0000 0.0000 0.0000 0.0000 0.0000 0.0000 0.0000 0.0000 0.0000 0.0000 0.0000 0.0000 0.0000 0.0000 0.0000 0.0000 0.0000 0.0000 0.0000 0.0000 0.0000 0.0000 0.0000 0.0000 0.0000 0.0000 0.0000 0.0000 0.0000 0.0000 0.0000 0.0000 0.0000 0.0000 0.0000 0.0000 0.0000 0.0000 0.0000 0.0000 0.0000 0.0000 0.0000 0.0000 0.0000 0.0000 0.0000 0.0000 0.0000 0.0000 0.0000 0.0000 0.0000 0.0000 0.0000 0.0000 0.0000 0.0000 0.0000 0.0000 0.0000 0.0000 0.0000 0.0000 0.0000 0.0000 0.0000 0.0000 0.0000 0.0000 0.0000 0.0000 0.0000 0.0000 0.0000 0.0000 0.0000 0.0000 0.0000 0.0000
0.1125 0.1144 0.1162 0.1162 0.1181 0.1181 0.1181 0.1181 0.1162 0.1162 0.1181 0.1218 0.1273 0.1328 0.1365 0.1384 0.1421 0.1494 0.1587 0.1661 0.1734 0.1790 0.1845 0.1937 0.2011 0.2066 0.2122 0.2196 0.2343 0.2491 0.2657 0.2952 0.3229 0.3395 0.3487 0.3561 0.3782 0.3985 0.4096 0.4077 0.4022 0.4004 0.4096 0.4188 0.4299 0.4391 0.4465 0.4446 0.4410 0.4391 0.4428 0.4465 0.4483 0.4539 0.4613 0.4686 0.4723 0.4723 0.4760 0.4760 0.4760 0.4705 0.4705 0.4760 0.4797 0.4797 0.4760 0.4705 0.4631 0.4539 0.4539 0.4594 0.4686 0.4815 0.4908 0.5018 0.5111 0.5166 0.5203 0.5258 0.5277 0.5277 0.5258 0.5221 0.5166 0.5074 0.4926 0.4797 0.4723 0.4742 0.4908 0.5148 0.5351 0.5480 0.5590 0.5683 0.5738 0.5756 0.5720 0.5646 0.5590 0.5609 0.5627 0.5701 0.5793 0.5904 0.6015 0.6107 0.6236 0.6365 0.6476 0.6531 0.6605 0.6661 0.6679 0.6716 0.6753 0.6734 0.6753 0.6734 0.6661 0.6531 0.6421 0.6402 0.6292 0.6144 0.5978 0.5849 0.5738 0.5627 0.5443 0.5258 0.5092 0.4982 0.4908 0.4834 0.4779 0.4668 0.4502 0.4317 0.4114 0.3911 0.3856 0.3782 0.3690 0.3561 0.3450 0.3303 0.3155 0.3063 0.2970 0.2878 0.2786 0.2638 0.2454 0.2343 0.2288 0.2251 0.2196 0.2140 0.2085 0.1956 0.1882 0.1827 0.1771 0.1716 0.1679 0.1624 0.1568 0.1513 0.1458 0.1402 0.1365 0.1328 0.1292 0.1310 0.1347 0.1402 0.1421 0.1421 0.1458 0.1476 0.1458 0.1402 0.1347 0.1328 0.1328 0.1347 0.1365 0.1365 0.1328 0.1255 0.1162 0.1070 0.0996 0.0941 0.0904 0.0849 0.0812 0.0793 0.0738 0.0701 0.0701 0.0664 0.0664 0.0701 0.0720 0.0664 0.0554 0.0498 0.0424 0.0314 0.0277 0.0221 0.0111 0.0037 0.0018 0.0018 0.0000 0.0000 0.0000 0.0000 0.0000 0.0000 0.0000 0.0000 0.0000 0.0000 0.0000 0.0000 0.0000 0.0000 0.0000 0.0000 0.0000 0.0000 0.0000 0.0000 0.0000 0.0000 0.0000 0.0000 0.0000 0.0000 0.0000 0.0000 0.0000 0.0000 0.0000 0.0000 0.0000 0.0000 0.0000 0.0000 0.0000 0.0000 0.0000 0.0000 0.0000 0.0000 0.0000 0.0000 0.0000 0.0000 0.0000 0.0000 0.0000 0.0000 0.0000 0.0000 0.0000 0.0000 0.0000 0.0000 0.0000 0.0000 0.0000 0.0000 0.0000 0.0000 0.0000 0.0000 0.0000 0.0000 0.0000 0.0000 0.0000 0.0000 0.0000 0.0000 0.0000 0.0000 0.0000 0.0000 0.0000 0.0000 0.0000 0.0000 0.0000 0.0000 0.0000 0.0000 0.0000 0.0000 0.0000 0.0000 0.0000 0.0000 0.0000 0.0000 0.0000 0.0000 0.0000 0.0000 0.0000 0.0000 0.0000 0.0000 0.0000 0.0000 0.0000 0.0000 0.0000 0.0000 0.0000 0.0000 0.0000 0.0000 0.0000 0.0000 0.0000 0.0000 0.0000 0.0000 0.0000 0.0000 0.0000 0.0000 0.0000 0.0000 0.0000 0.0000 0.0000 0.0000 0.0000 0.0000 0.0000 0.0000 0.0000 0.0000 0.0000 0.0000 0.0000 0.0000 0.0000 0.0000 0.0000 0.0000 0.0000 0.0000 0.0000 0.0000 0.0000 0.0000 0.0000 0.0000 0.0000 0.0000 0.0000 0.0000 0.0000 0.0000 0.0000 0.0000 0.0000 0.0000 0.0000 0.0000 0.0000 0.0000 0.0000 0.0000 0.0000 0.0000 0.0000 0.0000 0.0000 0.0000 0.0000 0.0000 0.0000 0.0000 0.0000 0.0000 0.0000 0.0000 0.0000 0.0000 0.0000 0.0000 0.0000 0.0000 0.0000 0.0000 0.0000 0.0000 0.0000 0.0000 0.0000 0.0000 0.0000 0.0000 0.0000 0.0000 0.0000 0.0000 0.0000 0.0000 0.0000 0.0000 0.0000 0.0000 0.0000 0.0000 0.0000 0.0000
0.1089 0.1089 0.1107 0.1144 0.1162 0.1162 0.1162 0.1162 0.1181 0.1199 0.1236 0.1310 0.1384 0.1439 0.1476 0.1513 0.1531 0.1568 0.1661 0.1716 0.1771 0.1808 0.1863 0.1956 0.2011 0.2066 0.2140 0.2288 0.2435 0.2601 0.2786 0.2989 0.3210 0.3413 0.3542 0.3672 0.3893 0.4151 0.4244 0.4280 0.4280 0.4299 0.4336 0.4391 0.4446 0.4520 0.4502 0.4483 0.4446 0.4465 0.4520 0.4576 0.4594 0.4649 0.4742 0.4779 0.4815 0.4815 0.4834 0.4852 0.4834 0.4815 0.4797 0.4834 0.4871 0.4889 0.4871 0.4815 0.4742 0.4686 0.4631 0.4631 0.4705 0.4797 0.4889 0.4982 0.5074 0.5166 0.5221 0.5277 0.5314 0.5332 0.5332 0.5332 0.5332 0.5258 0.5185 0.5055 0.5000 0.5018 0.5074 0.5221 0.5369 0.5498 0.5627 0.5756 0.5867 0.5886 0.5904 0.5886 0.5867 0.5830 0.5830 0.5849 0.5904 0.6015 0.6144 0.6292 0.6402 0.6531 0.6587 0.6679 0.6753 0.6808 0.6808 0.6808 0.6808 0.6771 0.6734 0.6697 0.6587 0.6421 0.6328 0.6236 0.6144 0.6015 0.5867 0.5683 0.5554 0.5443 0.5314 0.5148 0.4982 0.4889 0.4797 0.4742 0.4686 0.4613 0.4502 0.4280 0.4022 0.3875 0.3819 0.3745 0.3653 0.3524 0.3395 0.3266 0.3155 0.3044 0.2952 0.2860 0.2768 0.2620 0.2491 0.2399 0.2343 0.2251 0.2159 0.2085 0.1993 0.1900 0.1845 0.1808 0.1753 0.1697 0.1642 0.1587 0.1531 0.1476 0.1421 0.1384 0.1347 0.1365 0.1402 0.1439 0.1494 0.1513 0.1494 0.1476 0.1494 0.1513 0.1494 0.1439 0.1384 0.1347 0.1347 0.1310 0.1328 0.1310 0.1273 0.1181 0.1107 0.1033 0.0996 0.0959 0.0904 0.0849 0.0830 0.0793 0.0756 0.0720 0.0720 0.0738 0.0756 0.0793 0.0812 0.0738 0.0664 0.0554 0.0480 0.0406 0.0351 0.0277 0.0148 0.0074 0.0037 0.0018 0.0018 0.0018 0.0018 0.0018 0.0000 0.0000 0.0000 0.0000 0.0000 0.0000 0.0000 0.0000 0.0000 0.0000 0.0000 0.0000 0.0000 0.0000 0.0000 0.0000 0.0000 0.0000 0.0000 0.0000 0.0000 0.0000 0.0000 0.0000 0.0000 0.0000 0.0000 0.0000 0.0000 0.0000 0.0000 0.0000 0.0000 0.0000 0.0000 0.0000 0.0000 0.0000 0.0000 0.0000 0.0000 0.0000 0.0000 0.0000 0.0000 0.0000 0.0000 0.0000 0.0000 0.0000 0.0000 0.0000 0.0000 0.0000 0.0000 0.0000 0.0000 0.0000 0.0000 0.0000 0.0000 0.0000 0.0000 0.0000 0.0000 0.0000 0.0000 0.0000 0.0000 0.0000 0.0000 0.0000 0.0000 0.0000 0.0000 0.0000 0.0000 0.0000 0.0000 0.0000 0.0000 0.0000 0.0000 0.0000 0.0000 0.0000 0.0000 0.0000 0.0000 0.0000 0.0000 0.0000 0.0000 0.0000 0.0000 0.0000 0.0000 0.0000 0.0000 0.0000 0.0000 0.0000 0.0000 0.0000 0.0000 0.0000 0.0000 0.0000 0.0000 0.0000 0.0000 0.0000 0.0000 0.0000 0.0000 0.0000 0.0000 0.0000 0.0000 0.0000 0.0000 0.0000 0.0000 0.0000 0.0000 0.0000 0.0000 0.0000 0.0000 0.0000 0.0000 0.0000 0.0000 0.0000 0.0000 0.0000 0.0000 0.0000 0.0000 0.0000 0.0000 0.0000 0.0000 0.0000 0.0000 0.0000 0.0000 0.0000 0.0000 0.0000 0.0000 0.0000 0.0000 0.0000 0.0000 0.0000 0.0000 0.0000 0.0000 0.0000 0.0000 0.0000 0.0000 0.0000 0.0000 0.0000 0.0000 0.0000 0.0000 0.0000 0.0000 0.0000 0.0000 0.0000 0.0000 0.0000 0.0000 0.0000 0.0000 0.0000 0.0000 0.0000 0.0000 0.0000 0.0000 0.0000 0.0000 0.0000 0.0000 0.0000 0.0000 0.0000 0.0000 0.0000 0.0000 0.0000 0.0000 0.0000 0.0000 0.0000 0.0000 0.0000 0.0000 0.0000
0.1015 0.1033 0.1070 0.1089 0.1125 0.1107 0.1125 0.1144 0.1199 0.1255 0.1292 0.1347 0.1421 0.1476 0.1568 0.1605 0.1605 0.1642 0.1734 0.1827 0.1919 0.1974 0.2011 0.2048 0.2085 0.2140 0.2251 0.2380 0.2546 0.2675 0.2804 0.2970 0.3155 0.3339 0.3524 0.3672 0.3856 0.4133 0.4336 0.4410 0.4446 0.4446 0.4446 0.4483 0.4539 0.4576 0.4576 0.4576 0.4520 0.4502 0.4557 0.4631 0.4705 0.4797 0.4852 0.4908 0.4908 0.4908 0.4908 0.4908 0.4908 0.4908 0.4908 0.4908 0.4945 0.4963 0.4945 0.4889 0.4852 0.4815 0.4760 0.4779 0.4815 0.4852 0.4908 0.4982 0.5037 0.5129 0.5185 0.5258 0.5314 0.5332 0.5369 0.5406 0.5406 0.5369 0.5295 0.5240 0.5221 0.5221 0.5240 0.5295 0.5406 0.5535 0.5646 0.5793 0.5923 0.5996 0.6033 0.6052 0.6052 0.6015 0.5996 0.5959 0.6052 0.6162 0.6292 0.6402 0.6513 0.6624 0.6697 0.6808 0.6863 0.6882 0.6882 0.6882 0.6845 0.6790 0.6716 0.6605 0.6476 0.6310 0.6181 0.6107 0.6015 0.5904 0.5756 0.5554 0.5406 0.5277 0.5166 0.5018 0.4852 0.4686 0.4613 0.4594 0.4520 0.4465 0.4336 0.4133 0.3893 0.3764 0.3690 0.3598 0.3506 0.3413 0.3321 0.3229 0.3100 0.2952 0.2860 0.2731 0.2620 0.2528 0.2472 0.2417 0.2380 0.2269 0.2122 0.2030 0.1974 0.1919 0.1882 0.1827 0.1771 0.1697 0.1661 0.1605 0.1568 0.1494 0.1402 0.1384 0.1384 0.1439 0.1494 0.1531 0.1587 0.1605 0.1587 0.1568 0.1568 0.1531 0.1513 0.1476 0.1421 0.1384 0.1365 0.1328 0.1328 0.1310 0.1218 0.1144 0.1070 0.1015 0.0978 0.0941 0.0904 0.0849 0.0812 0.0812 0.0793 0.0793 0.0793 0.0830 0.0867 0.0904 0.0904 0.0886 0.0812 0.0738 0.0590 0.0517 0.0443 0.0314 0.0185 0.0074 0.0037 0.0018 0.0000 -0.0037 -0.0037 0.0018 0.0037 0.0055 0.0074 0.0074 0.0000 0.0000 0.0000 0.0000 0.0018 0.0018 0.0037 0.0037 0.0000 0.0000 0.0000 0.0000 0.0000 0.0000 0.0000 0.0000 0.0000 0.0000 0.0000 0.0000 0.0000 0.0000 0.0000 0.0000 0.0000 0.0000 0.0000 0.0000 0.0000 0.0000 0.0000 0.0000 0.0000 0.0000 0.0000 0.0000 0.0000 0.0000 0.0000 0.0000 0.0000 0.0000 0.0000 0.0000 0.0000 0.0000 0.0000 0.0000 0.0000 0.0000 0.0000 0.0000 0.0000 0.0000 0.0000 0.0000 0.0000 0.0000 0.0000 0.0000 0.0000 0.0000 0.0000 0.0000 0.0000 0.0000 0.0000 0.0000 0.0000 0.0000 0.0000 0.0000 0.0000 0.0000 0.0000 0.0000 0.0000 0.0000 0.0000 0.0000 0.0000 0.0000 0.0000 0.0000 0.0000 0.0000 0.0000 0.0000 0.0000 0.0000 0.0000 0.0000 0.0000 0.0000 0.0000 0.0000 0.0000 0.0000 0.0000 0.0000 0.0000 0.0000 0.0000 0.0000 0.0000 0.0000 0.0000 0.0000 0.0000 0.0000 0.0000 0.0000 0.0000 0.0000 0.0000 0.0000 0.0000 0.0000 0.0000 0.0000 0.0000 0.0000 0.0000 0.0000 0.0000 0.0000 0.0000 0.0000 0.0000 0.0000 0.0000 0.0000 0.0000 0.0000 0.0000 0.0000 0.0000 0.0000 0.0000 0.0000 0.0000 0.0000 0.0000 0.0000 0.0000 0.0000 0.0000 0.0000 0.0000 0.0000 0.0000 0.0000 0.0000 0.0000 0.0000 0.0000 0.0000 0.0000 0.0000 0.0000 0.0000 0.0000 0.0000 0.0000 0.0000 0.0000 0.0000 0.0000 0.0000 0.0000 0.0000 0.0000 0.0000 0.0000 0.0000 0.0000 0.0000 0.0000 0.0000 0.0000 0.0000 0.0000 0.0000 0.0000 0.0000 0.0000 0.0000 0.0000 0.0000 0.0000 0.0000 0.0000 0.0000 0.0000 0.0000 0.0000 0.0000 0.0000 0.0000 0.0000
0.0867 0.0923 0.0978 0.1033 0.1052 0.1052 0.1070 0.1144 0.1236 0.1292 0.1328 0.1384 0.1439 0.1513 0.1568 0.1624 0.1679 0.1716 0.1771 0.1900 0.2011 0.2066 0.2122 0.2159 0.2214 0.2269 0.2343 0.2491 0.2583 0.2657 0.2786 0.2934 0.3081 0.3266 0.3450 0.3635 0.3819 0.4041 0.4280 0.4391 0.4446 0.4483 0.4502 0.4520 0.4576 0.4613 0.4649 0.4668 0.4649 0.4613 0.4686 0.4760 0.4834 0.4908 0.4963 0.4963 0.4982 0.4982 0.5000 0.5018 0.5000 0.5000 0.4963 0.4963 0.4982 0.5000 0.5000 0.4963 0.4908 0.4889 0.4871 0.4852 0.4889 0.4945 0.5000 0.5074 0.5111 0.5166 0.5240 0.5277 0.5314 0.5332 0.5369 0.5424 0.5443 0.5424 0.5406 0.5387 0.5387 0.5387 0.5387 0.5406 0.5480 0.5554 0.5664 0.5793 0.5941 0.6052 0.6144 0.6199 0.6218 0.6199 0.6144 0.6144 0.6199 0.6310 0.6439 0.6531 0.6642 0.6716 0.6808 0.6845 0.6863 0.6863 0.6882 0.6863 0.6827 0.6716 0.6624 0.6531 0.6347 0.6218 0.6107 0.5996 0.5886 0.5756 0.5609 0.5461 0.5332 0.5185 0.5074 0.4926 0.4705 0.4557 0.4465 0.4391 0.4317 0.4262 0.4151 0.3948 0.3782 0.3653 0.3542 0.3432 0.3358 0.3266 0.3192 0.3118 0.2989 0.2860 0.2731 0.2601 0.2509 0.2454 0.2417 0.2399 0.2362 0.2269 0.2122 0.2066 0.2011 0.1956 0.1900 0.1863 0.1771 0.1716 0.1697 0.1661 0.1587 0.1513 0.1439 0.1421 0.1458 0.1531 0.1568 0.1605 0.1642 0.1661 0.1642 0.1624 0.1605 0.1568 0.1550 0.1531 0.1476 0.1421 0.1384 0.1365 0.1347 0.1310 0.1236 0.1181 0.1107 0.1070 0.1015 0.1015 0.0959 0.0923 0.0886 0.0886 0.0867 0.0904 0.0923 0.0959 0.0996 0.1015 0.1033 0.1015 0.0996 0.0886 0.0756 0.0590 0.0498 0.0387 0.0295 0.0221 0.0111 0.0074 0.0074 0.0037 0.0018 0.0037 0.0037 0.0055 0.0037 0.0018 0.0037 0.0000 0.0000 0.0037 0.0018 0.0018 0.0018 0.0018 0.0000 0.0000 0.0000 0.0000 0.0000 0.0000 0.0000 0.0000 0.0000 0.0000 0.0000 0.0000 0.0000 0.0000 0.0000 0.0000 0.0000 0.0000 0.0000 0.0000 0.0000 0.0000 0.0000 0.0000 0.0000 0.0000 0.0000 0.0000 0.0000 0.0000 0.0000 0.0000 0.0000 0.0000 0.0000 0.0000 0.0000 0.0000 0.0000 0.0000 0.0000 0.0000 0.0000 0.0000 0.0000 0.0000 0.0000 0.0000 0.0000 0.0000 0.0000 0.0000 0.0000 0.0000 0.0000 0.0000 0.0000 0.0000 0.0000 0.0000 0.0000 0.0000 0.0000 0.0000 0.0000 0.0000 0.0000 0.0000 0.0000 0.0000 0.0000 0.0000 0.0000 0.0000 0.0000 0.0000 0.0000 0.0000 0.0000 0.0000 0.0000 0.0000 0.0000 0.0000 0.0000 0.0000 0.0000 0.0000 0.0000 0.0000 0.0000 0.0000 0.0000 0.0000 0.0000 0.0000 0.0000 0.0000 0.0000 0.0000 0.0000 0.0000 0.0000 0.0000 0.0000 0.0000 0.0000 0.0000 0.0000 0.0000 0.0000 0.0000 0.0000 0.0000 0.0000 0.0000 0.0000 0.0000 0.0000 0.0000 0.0000 0.0000 0.0000 0.0000 0.0000 0.0000 0.0000 0.0000 0.0000 0.0000 0.0000 0.0000 0.0000 0.0000 0.0000 0.0000 0.0000 0.0000 0.0000 0.0000 0.0000 0.0000 0.0000 0.0000 0.0000 0.0000 0.0000 0.0000 0.0000 0.0000 0.0000 0.0000 0.0000 0.0000 0.0000 0.0000 0.0000 0.0000 0.0000 0.0000 0.0000 0.0000 0.0000 0.0000 0.0000 0.0000 0.0000 0.0000 0.0000 0.0000 0.0000 0.0000 0.0000 0.0000 0.0000 0.0000 0.0000 0.0000 0.0000 0.0000 0.0000 0.0000 0.0000 0.0000 0.0000 0.0000 0.0000 0.0000 0.0000 0.0000 0.0000 0.0000
0.0720 0.0775 0.0849 0.0904 0.0941 0.0941 0.0978 0.1070 0.1199 0.1292 0.1328 0.1402 0.1494 0.1531 0.1587 0.1642 0.1697 0.1734 0.1790 0.1900 0.2011 0.2085 0.2122 0.2177 0.2251 0.2325 0.2417 0.2528 0.2620 0.2694 0.2804 0.2934 0.3081 0.3229 0.3413 0.3672 0.3856 0.4022 0.4244 0.4391 0.4465 0.4557 0.4613 0.4631 0.4649 0.4686 0.4723 0.4742 0.4723 0.4723 0.4760 0.4834 0.4945 0.5018 0.5037 0.5074 0.5092 0.5092 0.5092 0.5092 0.5074 0.5055 0.5018 0.5018 0.5018 0.5018 0.5037 0.5018 0.5018 0.4982 0.4963 0.4963 0.5000 0.5055 0.5166 0.5240 0.5277 0.5277 0.5314 0.5332 0.5351 0.5369 0.5406 0.5443 0.5480 0.5498 0.5517 0.5554 0.5609 0.5627 0.5627 0.5609 0.5609 0.5609 0.5701 0.5812 0.5941 0.6089 0.6218 0.6310 0.6328 0.6347 0.6347 0.6347 0.6384 0.6476 0.6568 0.6679 0.6734 0.6790 0.6827 0.6827 0.6808 0.6808 0.6808 0.6808 0.6716 0.6642 0.6587 0.6458 0.6292 0.6162 0.6015 0.5867 0.5738 0.5590 0.5480 0.5369 0.5258 0.5111 0.5018 0.4852 0.4686 0.4446 0.4299 0.4170 0.4114 0.4059 0.3967 0.3782 0.3635 0.3524 0.3432 0.3339 0.3229 0.3155 0.3081 0.3007 0.2860 0.2768 0.2638 0.2528 0.2435 0.2362 0.2325 0.2325 0.2288 0.2214 0.2122 0.2103 0.2066 0.2011 0.1956 0.1900 0.1827 0.1790 0.1790 0.1753 0.1661 0.1550 0.1476 0.1458 0.1513 0.1605 0.1661 0.1679 0.1716 0.1716 0.1716 0.1697 0.1642 0.1605 0.1587 0.1587 0.1531 0.1458 0.1402 0.1384 0.1365 0.1328 0.1273 0.1236 0.1236 0.1199 0.1181 0.1144 0.1070 0.1015 0.0978 0.0978 0.0978 0.1015 0.1033 0.1052 0.1070 0.1089 0.1070 0.1070 0.1033 0.0959 0.0830 0.0720 0.0590 0.0554 0.0498 0.0480 0.0351 0.0258 0.0203 0.0203 0.0148 0.0166 0.0166 0.0111 0.0074 0.0037 0.0018 0.0018 0.0018 0.0018 0.0018 0.0000 0.0000 0.0018 0.0037 0.0000 0.0000 0.0000 0.0000 0.0000 0.0000 0.0000 0.0000 0.0000 0.0000 0.0000 0.0000 0.0000 0.0000 0.0000 0.0000 0.0000 0.0000 0.0000 0.0000 0.0000 0.0000 0.0000 0.0000 0.0000 0.0000 0.0000 0.0000 0.0000 0.0000 0.0000 0.0000 0.0000 0.0000 0.0000 0.0000 0.0000 0.0000 0.0000 0.0000 0.0000 0.0000 0.0000 0.0000 0.0000 0.0000 0.0000 0.0000 0.0000 0.0000 0.0000 0.0000 0.0000 0.0000 0.0000 0.0000 0.0000 0.0000 0.0000 0.0000 0.0000 0.0000 0.0000 0.0000 0.0000 0.0000 0.0000 0.0000 0.0000 0.0000 0.0000 0.0000 0.0000 0.0000 0.0000 0.0000 0.0000 0.0000 0.0000 0.0000 0.0000 0.0000 0.0000 0.0000 0.0000 0.0000 0.0000 0.0000 0.0000 0.0000 0.0000 0.0000 0.0000 0.0000 0.0000 0.0000 0.0000 0.0000 0.0000 0.0000 0.0000 0.0000 0.0000 0.0000 0.0000 0.0000 0.0000 0.0000 0.0000 0.0000 0.0000 0.0000 0.0000 0.0000 0.0000 0.0000 0.0000 0.0000 0.0000 0.0000 0.0000 0.0000 0.0000 0.0000 0.0000 0.0000 0.0000 0.0000 0.0000 0.0000 0.0000 0.0000 0.0000 0.0000 0.0000 0.0000 0.0000 0.0000 0.0000 0.0000 0.0000 0.0000 0.0000 0.0000 0.0000 0.0000 0.0000 0.0000 0.0000 0.0000 0.0000 0.0000 0.0000 0.0000 0.0000 0.0000 0.0000 0.0000 0.0000 0.0000 0.0000 0.0000 0.0000 0.0000 0.0000 0.0000 0.0000 0.0000 0.0000 0.0000 0.0000 0.0000 0.0000 0.0000 0.0000 0.0000 0.0000 0.0000 0.0000 0.0000 0.0000 0.0000 0.0000 0.0000 0.0000 0.0000 0.0000 0.0000 0.0000 0.0000 0.0000
0.0609 0.0683 0.0738 0.0775 0.0812 0.0849 0.0923 0.1033 0.1162 0.1218 0.1292 0.1421 0.1531 0.1587 0.1624 0.1661 0.1697 0.1753 0.1808 0.1882 0.1974 0.2030 0.2085 0.2159 0.2251 0.2306 0.2380 0.2509 0.2620 0.2712 0.2804 0.2952 0.3081 0.3173 0.3432 0.3727 0.3985 0.4188 0.4373 0.4483 0.4613 0.4742 0.4760 0.4742 0.4742 0.4797 0.4815 0.4815 0.4797 0.4797 0.4815 0.4889 0.4982 0.5055 0.5111 0.5129 0.5148 0.5148 0.5148 0.5148 0.5148 0.5111 0.5092 0.5074 0.5055 0.5074 0.5092 0.5092 0.5092 0.5111 0.5111 0.5129 0.5166 0.5240 0.5332 0.5369 0.5387 0.5406 0.5424 0.5443 0.5480 0.5498 0.5498 0.5535 0.5572 0.5627 0.5646 0.5701 0.5793 0.5812 0.5830 0.5830 0.5775 0.5812 0.5830 0.5886 0.5959 0.6107 0.6255 0.6365 0.6421 0.6439 0.6458 0.6513 0.6568 0.6642 0.6716 0.6771 0.6790 0.6790 0.6771 0.6716 0.6697 0.6697 0.6679 0.6661 0.6642 0.6568 0.6476 0.6347 0.6181 0.6033 0.5923 0.5756 0.5590 0.5443 0.5295 0.5185 0.5092 0.4945 0.4834 0.4723 0.4520 0.4336 0.4170 0.4041 0.3948 0.3911 0.3782 0.3672 0.3542 0.3469 0.3376 0.3266 0.3155 0.3044 0.2989 0.2860 0.2731 0.2675 0.2583 0.2454 0.2362 0.2306 0.2251 0.2251 0.2214 0.2159 0.2103 0.2085 0.2066 0.2030 0.2011 0.1974 0.1900 0.1863 0.1863 0.1808 0.1716 0.1642 0.1587 0.1605 0.1642 0.1697 0.1734 0.1753 0.1790 0.1808 0.1790 0.1753 0.1697 0.1642 0.1605 0.1605 0.1568 0.1531 0.1476 0.1458 0.1439 0.1421 0.1402 0.1365 0.1365 0.1365 0.1328 0.1273 0.1199 0.1144 0.1089 0.1070 0.1089 0.1125 0.1162 0.1162 0.1162 0.1125 0.1107 0.1089 0.1052 0.0996 0.0978 0.0886 0.0830 0.0756 0.0720 0.0646 0.0572 0.0461 0.0387 0.0351 0.0295 0.0295 0.0277 0.0221 0.0148 0.0129 0.0111 0.0092 0.0074 0.0092 0.0037 0.0018 -0.0018 0.0000 0.0037 0.0000 0.0000 0.0000 0.0000 0.0000 0.0000 0.0000 0.0000 0.0000 0.0000 0.0000 0.0000 0.0037 0.0037 0.0018 0.0000 0.0000 0.0000 0.0000 0.0000 0.0000 0.0000 0.0000 0.0000 0.0000 0.0000 0.0000 0.0000 0.0000 0.0000 0.0000 0.0000 0.0000 0.0000 0.0000 0.0000 0.0000 0.0000 0.0000 0.0000 0.0000 0.0000 0.0000 0.0000 0.0000 0.0000 0.0000 0.0000 0.0000 0.0000 0.0000 0.0000 0.0000 0.0000 0.0000 0.0000 0.0000 0.0000 0.0000 0.0000 0.0000 0.0000 0.0000 0.0000 0.0000 0.0000 0.0000 0.0000 0.0000 0.0000 0.0000 0.0000 0.0000 0.0000 0.0000 0.0000 0.0000 0.0000 0.0000 0.0000 0.0000 0.0000 0.0000 0.0000 0.0000 0.0000 0.0000 0.0000 0.0000 0.0000 0.0000 0.0000 0.0000 0.0000 0.0000 0.0000 0.0000 0.0000 0.0000 0.0000 0.0000 0.0000 0.0000 0.0000 0.0000 0.0000 0.0000 0.0000 0.0000 0.0000 0.0000 0.0000 0.0000 0.0000 0.0000 0.0000 0.0000 0.0000 0.0000 0.0000 0.0000 0.0000 0.0000 0.0000 0.0000 0.0000 0.0000 0.0000 0.0000 0.0000 0.0000 0.0000 0.0000 0.0000 0.0000 0.0000 0.0000 0.0000 0.0000 0.0000 0.0000 0.0000 0.0000 0.0000 0.0000 0.0000 0.0000 0.0000 0.0000 0.0000 0.0000 0.0000 0.0000 0.0000 0.0000 0.0000 0.0000 0.0000 0.0000 0.0000 0.0000 0.0000 0.0000 0.0000 0.0000 0.0000 0.0000 0.0000 0.0000 0.0000 0.0000 0.0000 0.0000 0.0000 0.0000 0.0000 0.0000 0.0000 0.0000 0.0000 0.0000 0.0000 0.0000 0.0000 0.0000 0.0000 0.0000 0.0000 0.0000 0.0000 0.0000
0.0590 0.0646 0.0664 0.0701 0.0738 0.0793 0.0867 0.0996 0.1089 0.1162 0.1236 0.1347 0.1458 0.1550 0.1605 0.1642 0.1679 0.1716 0.1771 0.1845 0.1900 0.1956 0.2030 0.2122 0.2196 0.2269 0.2325 0.2454 0.2565 0.2657 0.2804 0.2970 0.3118 0.3303 0.3524 0.3801 0.4041 0.4280 0.4483 0.4631 0.4779 0.4852 0.4889 0.4871 0.4889 0.4926 0.4982 0.4963 0.4945 0.4926 0.4945 0.5000 0.5092 0.5148 0.5185 0.5240 0.5258 0.5258 0.5221 0.5221 0.5221 0.5203 0.5203 0.5185 0.5185 0.5203 0.5203 0.5203 0.5185 0.5185 0.5203 0.5258 0.5314 0.5406 0.5443 0.5480 0.5498 0.5517 0.5572 0.5609 0.5646 0.5646 0.5627 0.5646 0.5720 0.5756 0.5793 0.5867 0.5923 0.5978 0.6033 0.5996 0.5978 0.5978 0.6033 0.6089 0.6144 0.6199 0.6310 0.6439 0.6513 0.6550 0.6624 0.6697 0.6753 0.6790 0.6808 0.6808 0.6771 0.6734 0.6661 0.6568 0.6531 0.6550 0.6550 0.6531 0.6494 0.6439 0.6347 0.6199 0.6033 0.5923 0.5812 0.5664 0.5498 0.5295 0.5111 0.4982 0.4889 0.4760 0.4668 0.4520 0.4373 0.4207 0.4077 0.3893 0.3801 0.3727 0.3635 0.3542 0.3487 0.3376 0.3266 0.3210 0.3081 0.2970 0.2841 0.2768 0.2694 0.2638 0.2546 0.2435 0.2380 0.2362 0.2325 0.2269 0.2214 0.2159 0.2122 0.2103 0.2103 0.2066 0.2048 0.2048 0.1993 0.1937 0.1900 0.1863 0.1808 0.1753 0.1716 0.1697 0.1734 0.1771 0.1808 0.1827 0.1863 0.1882 0.1863 0.1827 0.1753 0.1679 0.1642 0.1624 0.1605 0.1605 0.1587 0.1568 0.1568 0.1587 0.1568 0.1531 0.1476 0.1439 0.1384 0.1328 0.1273 0.1255 0.1218 0.1218 0.1218 0.1236 0.1255 0.1236 0.1218 0.1162 0.1107 0.1089 0.1070 0.1052 0.1033 0.1052 0.1033 0.0978 0.0849 0.0756 0.0646 0.0590 0.0517 0.0461 0.0406 0.0387 0.0351 0.0314 0.0277 0.0258 0.0258 0.0240 0.0221 0.0221 0.0185 0.0055 0.0000 0.0000 0.0018 0.0018 0.0000 0.0000 0.0000 0.0000 0.0000 0.0000 0.0000 0.0000 0.0000 0.0000 0.0018 0.0018 -0.0037 0.0018 0.0018 0.0018 0.0018 0.0018 0.0000 0.0000 0.0000 0.0000 0.0000 0.0000 0.0000 0.0000 0.0000 0.0000 0.0000 0.0000 0.0000 0.0000 0.0000 0.0000 0.0000 0.0000 0.0000 0.0000 0.0000 0.0000 0.0000 0.0000 0.0000 0.0000 0.0000 0.0000 0.0000 0.0000 0.0000 0.0000 0.0000 0.0000 0.0000 0.0000 0.0000 0.0000 0.0000 0.0000 0.0000 0.0000 0.0000 0.0000 0.0000 0.0000 0.0000 0.0000 0.0000 0.0000 0.0000 0.0000 0.0000 0.0000 0.0000 0.0000 0.0000 0.0000 0.0000 0.0000 0.0000 0.0000 0.0000 0.0000 0.0000 0.0000 0.0000 0.0000 0.0000 0.0000 0.0000 0.0000 0.0000 0.0000 0.0000 0.0000 0.0000 0.0000 0.0000 0.0000 0.0000 0.0000 0.0000 0.0000 0.0000 0.0000 0.0000 0.0000 0.0000 0.0000 0.0000 0.0000 0.0000 0.0000 0.0000 0.0000 0.0000 0.0000 0.0000 0.0000 0.0000 0.0000 0.0000 0.0000 0.0000 0.0000 0.0000 0.0000 0.0000 0.0000 0.0000 0.0000 0.0000 0.0000 0.0000 0.0000 0.0000 0.0000 0.0000 0.0000 0.0000 0.0000 0.0000 0.0000 0.0000 0.0000 0.0000 0.0000 0.0000 0.0000 0.0000 0.0000 0.0000 0.0000 0.0000 0.0000 0.0000 0.0000 0.0000 0.0000 0.0000 0.0000 0.0000 0.0000 0.0000 0.0000 0.0000 0.0000 0.0000 0.0000 0.0000 0.0000 0.0000 0.0000 0.0000 0.0000 0.0000 0.0000 0.0000 0.0000 0.0000 0.0000 0.0000 0.0000 0.0000 0.0000 0.0000 0.0000 0.0000 0.0000 0.0000 0.0000
0.0572 0.0627 0.0664 0.0683 0.0720 0.0775 0.0867 0.0978 0.1070 0.1107 0.1162 0.1273 0.1365 0.1476 0.1550 0.1587 0.1605 0.1642 0.1716 0.1771 0.1808 0.1845 0.1956 0.2085 0.2159 0.2232 0.2306 0.2399 0.2528 0.2638 0.2786 0.2989 0.3192 0.3358 0.3542 0.3745 0.3948 0.4207 0.4446 0.4631 0.4797 0.4908 0.4982 0.5055 0.5092 0.5111 0.5148 0.5148 0.5129 0.5129 0.5129 0.5185 0.5221 0.5240 0.5277 0.5332 0.5387 0.5369 0.5351 0.5332 0.5332 0.5332 0.5351 0.5351 0.5314 0.5295 0.5332 0.5369 0.5369 0.5351 0.5369 0.5424 0.5480 0.5535 0.5554 0.5590 0.5627 0.5664 0.5720 0.5756 0.5793 0.5775 0.5756 0.5775 0.5775 0.5849 0.5923 0.5959 0.6033 0.6107 0.6144 0.6162 0.6125 0.6144 0.6199 0.6236 0.6273 0.6292 0.6365 0.6476 0.6550 0.6605 0.6679 0.6753 0.6790 0.6845 0.6827 0.6808 0.6753 0.6697 0.6587 0.6476 0.6439 0.6402 0.6365 0.6255 0.6255 0.6273 0.6181 0.6052 0.5923 0.5775 0.5664 0.5517 0.5314 0.5129 0.4963 0.4834 0.4705 0.4594 0.4483 0.4373 0.4244 0.4096 0.3985 0.3801 0.3708 0.3616 0.3506 0.3413 0.3358 0.3247 0.3155 0.3081 0.3026 0.2934 0.2823 0.2749 0.2712 0.2675 0.2601 0.2509 0.2454 0.2435 0.2399 0.2343 0.2306 0.2288 0.2269 0.2232 0.2177 0.2140 0.2103 0.2103 0.2066 0.2030 0.2011 0.1974 0.1937 0.1863 0.1808 0.1753 0.1808 0.1863 0.1882 0.1900 0.1919 0.1900 0.1882 0.1863 0.1808 0.1753 0.1697 0.1679 0.1661 0.1642 0.1624 0.1642 0.1679 0.1697 0.1642 0.1587 0.1531 0.1476 0.1421 0.1365 0.1328 0.1328 0.1328 0.1347 0.1347 0.1347 0.1310 0.1273 0.1255 0.1199 0.1162 0.1144 0.1125 0.1089 0.1070 0.1089 0.1089 0.1033 0.0904 0.0812 0.0701 0.0627 0.0572 0.0498 0.0480 0.0461 0.0443 0.0406 0.0424 0.0424 0.0461 0.0443 0.0443 0.0424 0.0387 0.0258 0.0111 0.0055 0.0000 0.0018 0.0018 0.0018 0.0018 0.0037 0.0037 0.0000 0.0000 0.0000 0.0018 0.0018 0.0018 0.0000 -0.0018 -0.0018 0.0018 0.0000 -0.0037 0.0018 0.0018 0.0000 0.0000 0.0000 0.0000 0.0000 0.0000 0.0000 0.0000 0.0000 0.0000 0.0000 0.0000 0.0000 0.0000 0.0000 0.0000 0.0000 0.0000 0.0000 0.0000 0.0000 0.0000 0.0000 0.0000 0.0000 0.0000 0.0000 0.0000 0.0000 0.0000 0.0000 0.0000 0.0000 0.0000 0.0000 0.0000 0.0000 0.0000 0.0000 0.0000 0.0000 0.0000 0.0000 0.0000 0.0000 0.0000 0.0000 0.0000 0.0000 0.0000 0.0000 0.0000 0.0000 0.0000 0.0000 0.0000 0.0000 0.0000 0.0000 0.0000 0.0000 0.0000 0.0000 0.0000 0.0000 0.0000 0.0000 0.0000 0.0000 0.0000 0.0000 0.0000 0.0000 0.0000 0.0000 0.0000 0.0000 0.0000 0.0000 0.0000 0.0000 0.0000 0.0000 0.0000 0.0000 0.0000 0.0000 0.0000 0.0000 0.0000 0.0000 0.0000 0.0000 0.0000 0.0000 0.0000 0.0000 0.0000 0.0000 0.0000 0.0000 0.0000 0.0000 0.0000 0.0000 0.0000 0.0000 0.0000 0.0000 0.0000 0.0000 0.0000 0.0000 0.0000 0.0000 0.0000 0.0000 0.0000 0.0000 0.0000 0.0000 0.0000 0.0000 0.0000 0.0000 0.0000 0.0000 0.0000 0.0000 0.0000 0.0000 0.0000 0.0000 0.0000 0.0000 0.0000 0.0000 0.0000 0.0000 0.0000 0.0000 0.0000 0.0000 0.0000 0.0000 0.0000 0.0000 0.0000 0.0000 0.0000 0.0000 0.0000 0.0000 0.0000 0.0000 0.0000 0.0000 0.0000 0.0000 0.0000 0.0000 0.0000 0.0000 0.0000 0.0000 0.0000 0.0000 0.0000 0.0000 0.0000 0.0000
0.0590 0.0627 0.0664 0.0701 0.0738 0.0793 0.0886 0.0959 0.1015 0.1070 0.1144 0.1236 0.1328 0.1402 0.1476 0.1513 0.1531 0.1605 0.1679 0.1771 0.1790 0.1827 0.1937 0.2066 0.2159 0.2196 0.2251 0.2343 0.2454 0.2583 0.2712 0.2952 0.3192 0.3339 0.3487 0.3635 0.3838 0.4096 0.4354 0.4576 0.4797 0.5018 0.5092 0.5185 0.5221 0.5277 0.5314 0.5314 0.5295 0.5277 0.5314 0.5314 0.5332 0.5332 0.5351 0.5387 0.5424 0.5443 0.5443 0.5443 0.5443 0.5443 0.5480 0.5498 0.5480 0.5461 0.5498 0.5554 0.5554 0.5554 0.5554 0.5609 0.5627 0.5664 0.5701 0.5756 0.5793 0.5812 0.5867 0.5886 0.5867 0.5867 0.5867 0.5886 0.5941 0.5978 0.6033 0.6089 0.6144 0.6255 0.6328 0.6328 0.6310 0.6310 0.6328 0.6365 0.6384 0.6439 0.6476 0.6513 0.6531 0.6568 0.6642 0.6679 0.6697 0.6734 0.6771 0.6753 0.6697 0.6605 0.6513 0.6402 0.6328 0.6236 0.6125 0.6070 0.6052 0.6052 0.5996 0.5886 0.5812 0.5664 0.5498 0.5277 0.5111 0.4982 0.4852 0.4723 0.4594 0.4483 0.4410 0.4336 0.4188 0.4077 0.3948 0.3819 0.3672 0.3524 0.3413 0.3339 0.3284 0.3173 0.3081 0.3007 0.2970 0.2915 0.2860 0.2804 0.2768 0.2712 0.2657 0.2601 0.2546 0.2528 0.2491 0.2454 0.2454 0.2435 0.2417 0.2362 0.2251 0.2214 0.2177 0.2140 0.2122 0.2103 0.2103 0.2066 0.2011 0.1956 0.1882 0.1845 0.1882 0.1919 0.1956 0.1956 0.1937 0.1937 0.1919 0.1900 0.1882 0.1808 0.1771 0.1734 0.1679 0.1661 0.1642 0.1697 0.1734 0.1734 0.1697 0.1642 0.1587 0.1531 0.1494 0.1458 0.1439 0.1439 0.1421 0.1402 0.1402 0.1384 0.1347 0.1310 0.1273 0.1255 0.1218 0.1218 0.1181 0.1162 0.1144 0.1144 0.1125 0.1052 0.0904 0.0812 0.0756 0.0683 0.0627 0.0572 0.0554 0.0590 0.0572 0.0554 0.0590 0.0609 0.0627 0.0646 0.0646 0.0627 0.0572 0.0480 0.0369 0.0240 0.0092 -0.0018 -0.0018 0.0018 0.0037 0.0018 0.0037 0.0037 0.0018 0.0018 0.0018 0.0037 0.0037 0.0037 0.0055 0.0092 0.0148 0.0129 0.0092 0.0018 0.0018 0.0018 0.0018 0.0000 0.0000 0.0000 0.0000 0.0000 0.0000 0.0000 0.0000 0.0000 0.0000 0.0000 0.0000 0.0000 0.0000 0.0000 0.0000 0.0000 0.0000 0.0000 0.0000 0.0000 0.0000 0.0000 0.0000 0.0000 0.0000 0.0000 0.0000 0.0000 0.0000 0.0000 0.0000 0.0000 0.0000 0.0000 0.0000 0.0000 0.0000 0.0000 0.0000 0.0000 0.0000 0.0000 0.0000 0.0000 0.0000 0.0000 0.0000 0.0000 0.0000 0.0000 0.0000 0.0000 0.0000 0.0000 0.0000 0.0000 0.0000 0.0000 0.0000 0.0000 0.0000 0.0000 0.0000 0.0000 0.0000 0.0000 0.0000 0.0000 0.0000 0.0000 0.0000 0.0000 0.0000 0.0000 0.0000 0.0000 0.0000 0.0000 0.0000 0.0000 0.0000 0.0000 0.0000 0.0000 0.0000 0.0000 0.0000 0.0000 0.0000 0.0000 0.0000 0.0000 0.0000 0.0000 0.0000 0.0000 0.0000 0.0000 0.0000 0.0000 0.0000 0.0000 0.0000 0.0000 0.0000 0.0000 0.0000 0.0000 0.0000 0.0000 0.0000 0.0000 0.0000 0.0000 0.0000 0.0000 0.0000 0.0000 0.0000 0.0000 0.0000 0.0000 0.0000 0.0000 0.0000 0.0000 0.0000 0.0000 0.0000 0.0000 0.0000 0.0000 0.0000 0.0000 0.0000 0.0000 0.0000 0.0000 0.0000 0.0000 0.0000 0.0000 0.0000 0.0000 0.0000 0.0000 0.0000 0.0000 0.0000 0.0000 0.0000 0.0000 0.0000 0.0000 0.0000 0.0000 0.0000 0.0000 0.0000 0.0000 0.0000 0.0000 0.0000 0.0000 0.0000 0.0000 0.0000 0.0000
0.0572 0.0627 0.0646 0.0701 0.0738 0.0793 0.0867 0.0941 0.0996 0.1070 0.1162 0.1236 0.1310 0.1384 0.1439 0.1458 0.1513 0.1587 0.1679 0.1753 0.1771 0.1790 0.1882 0.2011 0.2103 0.2140 0.2177 0.2269 0.2380 0.2491 0.2638 0.2841 0.3044 0.3173 0.3321 0.3469 0.3672 0.3875 0.4133 0.4391 0.4649 0.4889 0.5092 0.5258 0.5369 0.5443 0.5461 0.5443 0.5443 0.5443 0.5443 0.5443 0.5480 0.5498 0.5498 0.5517 0.5535 0.5554 0.5554 0.5535 0.5498 0.5554 0.5609 0.5664 0.5646 0.5646 0.5701 0.5720 0.5720 0.5720 0.5720 0.5756 0.5793 0.5793 0.5849 0.5941 0.5941 0.5978 0.6033 0.6033 0.6033 0.6015 0.6070 0.6125 0.6162 0.6199 0.6199 0.6218 0.6310 0.6402 0.6476 0.6513 0.6513 0.6476 0.6458 0.6476 0.6531 0.6587 0.6605 0.6605 0.6550 0.6531 0.6513 0.6531 0.6568 0.6605 0.6624 0.6605 0.6568 0.6476 0.6384 0.6273 0.6162 0.6089 0.6015 0.5941 0.5904 0.5849 0.5775 0.5756 0.5720 0.5554 0.5369 0.5203 0.5037 0.4945 0.4797 0.4668 0.4520 0.4428 0.4354 0.4262 0.4151 0.4041 0.3930 0.3782 0.3635 0.3506 0.3376 0.3321 0.3266 0.3210 0.3137 0.3063 0.3026 0.2970 0.2952 0.2952 0.2878 0.2786 0.2731 0.2675 0.2657 0.2620 0.2601 0.2583 0.2546 0.2528 0.2491 0.2399 0.2343 0.2288 0.2288 0.2306 0.2269 0.2251 0.2196 0.2159 0.2103 0.2030 0.1956 0.1900 0.1900 0.1974 0.1993 0.2011 0.1974 0.1974 0.1956 0.1956 0.1919 0.1882 0.1845 0.1790 0.1734 0.1716 0.1716 0.1716 0.1734 0.1734 0.1697 0.1679 0.1661 0.1642 0.1624 0.1587 0.1550 0.1531 0.1494 0.1439 0.1439 0.1402 0.1365 0.1347 0.1328 0.1292 0.1292 0.1273 0.1255 0.1199 0.1181 0.1181 0.1144 0.1070 0.0904 0.0812 0.0738 0.0701 0.0683 0.0701 0.0701 0.0738 0.0756 0.0775 0.0793 0.0793 0.0756 0.0756 0.0756 0.0738 0.0701 0.0646 0.0572 0.0480 0.0277 0.0129 0.0092 0.0055 0.0037 0.0018 0.0037 0.0018 0.0000 -0.0037 0.0000 0.0037 0.0074 0.0111 0.0203 0.0314 0.0369 0.0369 0.0240 0.0129 0.0018 -0.0018 0.0018 0.0037 0.0000 0.0000 0.0000 0.0000 0.0000 0.0000 0.0000 0.0000 0.0000 0.0000 0.0000 0.0000 0.0000 0.0000 0.0000 0.0000 0.0000 0.0000 0.0000 0.0000 0.0000 0.0000 0.0000 0.0000 0.0000 0.0000 0.0000 0.0000 0.0000 0.0000 0.0000 0.0000 0.0000 0.0000 0.0000 0.0000 0.0000 0.0000 0.0000 0.0000 0.0000 0.0000 0.0000 0.0000 0.0000 0.0000 0.0000 0.0000 0.0000 0.0000 0.0000 0.0000 0.0000 0.0000 0.0000 0.0000 0.0000 0.0000 0.0000 0.0000 0.0000 0.0000 0.0000 0.0000 0.0000 0.0000 0.0000 0.0000 0.0000 0.0000 0.0000 0.0000 0.0000 0.0000 0.0000 0.0000 0.0000 0.0000 0.0000 0.0000 0.0000 0.0000 0.0000 0.0000 0.0000 0.0000 0.0000 0.0000 0.0000 0.0000 0.0000 0.0000 0.0000 0.0000 0.0000 0.0000 0.0000 0.0000 0.0000 0.0000 0.0000 0.0000 0.0000 0.0000 0.0000 0.0000 0.0000 0.0000 0.0000 0.0000 0.0000 0.0000 0.0000 0.0000 0.0000 0.0000 0.0000 0.0000 0.0000 0.0000 0.0000 0.0000 0.0000 0.0000 0.0000 0.0000 0.0000 0.0000 0.0000 0.0000 0.0000 0.0000 0.0000 0.0000 0.0000 0.0000 0.0000 0.0000 0.0000 0.0000 0.0000 0.0000 0.0000 0.0000 0.0000 0.0000 0.0000 0.0000 0.0000 0.0000 0.0000 0.0000 0.0000 0.0000 0.0000 0.0000 0.0000 0.0000 0.0000 0.0000 0.0000 0.0000 0.0000 0.0000 0.0000 0.0000 0.0000 0.0000
0.0535 0.0572 0.0646 0.0701 0.0756 0.0812 0.0849 0.0923 0.0996 0.1070 0.1162 0.1255 0.1328 0.1384 0.1402 0.1458 0.1531 0.1568 0.1624 0.1679 0.1697 0.1753 0.1827 0.1937 0.2030 0.2085 0.2103 0.2177 0.2288 0.2435 0.2601 0.2731 0.2878 0.3007 0.3081 0.3192 0.3376 0.3598 0.3801 0.4041 0.4336 0.4631 0.4926 0.5258 0.5498 0.5572 0.5590 0.5590 0.5572 0.5572 0.5572 0.5609 0.5646 0.5683 0.5701 0.5683 0.5664 0.5701 0.5701 0.5683 0.5701 0.5775 0.5867 0.5867 0.5849 0.5867 0.5886 0.5923 0.5904 0.5886 0.5904 0.5923 0.5941 0.5996 0.6052 0.6089 0.6070 0.6107 0.6181 0.6236 0.6292 0.6328 0.6365 0.6365 0.6384 0.6421 0.6402 0.6421 0.6439 0.6513 0.6587 0.6624 0.6605 0.6587 0.6550 0.6587 0.6624 0.6642 0.6642 0.6605 0.6550 0.6439 0.6384 0.6384 0.6402 0.6439 0.6421 0.6384 0.6365 0.6328 0.6255 0.6144 0.6052 0.5978 0.5904 0.5793 0.5683 0.5627 0.5627 0.5627 0.5572 0.5443 0.5295 0.5148 0.5018 0.4926 0.4797 0.4631 0.4502 0.4373 0.4280 0.4188 0.4077 0.3948 0.3838 0.3727 0.3616 0.3506 0.3432 0.3321 0.3247 0.3229 0.3192 0.3137 0.3100 0.3081 0.3118 0.3081 0.3007 0.2934 0.2841 0.2786 0.2731 0.2712 0.2675 0.2638 0.2620 0.2583 0.2509 0.2435 0.2380 0.2380 0.2399 0.2417 0.2399 0.2325 0.2269 0.2232 0.2177 0.2085 0.2011 0.1956 0.1956 0.2011 0.2048 0.2048 0.2030 0.2048 0.2011 0.1974 0.1956 0.1937 0.1900 0.1845 0.1808 0.1808 0.1771 0.1771 0.1771 0.1753 0.1734 0.1716 0.1716 0.1734 0.1716 0.1679 0.1624 0.1587 0.1568 0.1531 0.1513 0.1476 0.1439 0.1402 0.1384 0.1384 0.1365 0.1347 0.1310 0.1273 0.1236 0.1199 0.1144 0.1070 0.0941 0.0830 0.0756 0.0756 0.0793 0.0867 0.0904 0.0886 0.0886 0.0886 0.0904 0.0904 0.0886 0.0849 0.0830 0.0812 0.0775 0.0720 0.0683 0.0627 0.0461 0.0277 0.0203 0.0111 0.0018 0.0037 0.0037 0.0055 0.0037 0.0018 0.0055 0.0148 0.0240 0.0332 0.0443 0.0535 0.0572 0.0517 0.0387 0.0203 0.0092 0.0000 0.0000 0.0018 0.0037 0.0000 0.0000 0.0000 0.0000 0.0000 0.0000 0.0000 0.0000 0.0000 0.0000 0.0000 0.0000 0.0000 0.0000 0.0000 0.0000 0.0000 0.0000 0.0000 0.0000 0.0000 0.0000 0.0000 0.0000 0.0000 0.0000 0.0000 0.0000 0.0000 0.0000 0.0000 0.0000 0.0000 0.0000 0.0000 0.0000 0.0000 0.0000 0.0000 0.0000 0.0000 0.0000 0.0000 0.0000 0.0000 0.0000 0.0000 0.0000 0.0000 0.0000 0.0000 0.0000 0.0000 0.0000 0.0000 0.0000 0.0000 0.0000 0.0000 0.0000 0.0000 0.0000 0.0000 0.0000 0.0000 0.0000 0.0000 0.0000 0.0000 0.0000 0.0000 0.0000 0.0000 0.0000 0.0000 0.0000 0.0000 0.0000 0.0000 0.0000 0.0000 0.0000 0.0000 0.0000 0.0000 0.0000 0.0000 0.0000 0.0000 0.0000 0.0000 0.0000 0.0000 0.0000 0.0000 0.0000 0.0000 0.0000 0.0000 0.0000 0.0000 0.0000 0.0000 0.0000 0.0000 0.0000 0.0000 0.0000 0.0000 0.0000 0.0000 0.0000 0.0000 0.0000 0.0000 0.0000 0.0000 0.0000 0.0000 0.0000 0.0000 0.0000 0.0000 0.0000 0.0000 0.0000 0.0000 0.0000 0.0000 0.0000 0.0000 0.0000 0.0000 0.0000 0.0000 0.0000 0.0000 0.0000 0.0000 0.0000 0.0000 0.0000 0.0000 0.0000 0.0000 0.0000 0.0000 0.0000 0.0000 0.0000 0.0000 0.0000 0.0000 0.0000 0.0000 0.0000 0.0000 0.0000 0.0000 0.0000 0.0000 0.0000 0.0000 0.0000 0.0000 0.0000 0.0000
0.0517 0.0572 0.0646 0.0720 0.0793 0.0812 0.0849 0.0886 0.0959 0.1052 0.1144 0.1236 0.1310 0.1347 0.1365 0.1439 0.1513 0.1550 0.1568 0.1605 0.1642 0.1716 0.1790 0.1900 0.1993 0.2011 0.2048 0.2085 0.2177 0.2343 0.2509 0.2620 0.2768 0.2860 0.2897 0.2952 0.3100 0.3321 0.3542 0.3745 0.3948 0.4207 0.4613 0.5074 0.5480 0.5609 0.5683 0.5720 0.5720 0.5701 0.5738 0.5830 0.5923 0.5959 0.5959 0.5904 0.5886 0.5923 0.5941 0.5923 0.5941 0.6015 0.6070 0.6089 0.6089 0.6052 0.6052 0.6052 0.6052 0.6070 0.6089 0.6107 0.6162 0.6181 0.6199 0.6218 0.6218 0.6292 0.6384 0.6476 0.6531 0.6531 0.6531 0.6531 0.6513 0.6458 0.6439 0.6421 0.6421 0.6458 0.6513 0.6531 0.6550 0.6568 0.6568 0.6587 0.6587 0.6587 0.6568 0.6531 0.6439 0.6347 0.6292 0.6255 0.6236 0.6255 0.6255 0.6236 0.6199 0.6162 0.6107 0.5996 0.5941 0.5886 0.5775 0.5646 0.5572 0.5535 0.5517 0.5498 0.5443 0.5332 0.5203 0.5037 0.4908 0.4815 0.4705 0.4576 0.4446 0.4336 0.4262 0.4133 0.4041 0.3930 0.3838 0.3708 0.3598 0.3542 0.3450 0.3358 0.3266 0.3247 0.3210 0.3192 0.3192 0.3210 0.3192 0.3173 0.3118 0.3026 0.2952 0.2878 0.2823 0.2768 0.2731 0.2694 0.2675 0.2601 0.2509 0.2435 0.2399 0.2417 0.2454 0.2472 0.2417 0.2362 0.2306 0.2251 0.2196 0.2122 0.2048 0.2011 0.2030 0.2066 0.2085 0.2103 0.2122 0.2122 0.2085 0.2030 0.2011 0.1993 0.1956 0.1919 0.1882 0.1882 0.1863 0.1845 0.1845 0.1827 0.1808 0.1808 0.1808 0.1771 0.1753 0.1734 0.1697 0.1642 0.1624 0.1605 0.1587 0.1568 0.1531 0.1494 0.1458 0.1439 0.1421 0.1402 0.1384 0.1365 0.1328 0.1273 0.1199 0.1107 0.1033 0.0923 0.0886 0.0904 0.0978 0.1015 0.1015 0.0996 0.0978 0.0959 0.0941 0.0941 0.0923 0.0904 0.0867 0.0830 0.0775 0.0738 0.0683 0.0609 0.0480 0.0351 0.0258 0.0166 0.0074 0.0055 0.0092 0.0111 0.0148 0.0148 0.0185 0.0314 0.0424 0.0554 0.0646 0.0664 0.0683 0.0590 0.0461 0.0332 0.0221 0.0129 0.0018 0.0000 0.0018 0.0037 0.0000 0.0000 0.0000 0.0000 0.0000 0.0000 0.0000 0.0000 0.0000 0.0000 0.0000 0.0000 0.0000 0.0000 0.0000 0.0000 0.0000 0.0000 0.0000 0.0000 0.0000 0.0000 0.0000 0.0000 0.0000 0.0000 0.0000 0.0000 0.0000 0.0000 0.0000 0.0000 0.0000 0.0000 0.0000 0.0000 0.0000 0.0000 0.0000 0.0000 0.0000 0.0000 0.0000 0.0000 0.0000 0.0000 0.0000 0.0000 0.0000 0.0000 0.0000 0.0000 0.0000 0.0000 0.0000 0.0000 0.0000 0.0000 0.0000 0.0000 0.0000 0.0000 0.0000 0.0000 0.0000 0.0000 0.0000 0.0000 0.0000 0.0000 0.0000 0.0000 0.0000 0.0000 0.0000 0.0000 0.0000 0.0000 0.0000 0.0000 0.0000 0.0000 0.0000 0.0000 0.0000 0.0000 0.0000 0.0000 0.0000 0.0000 0.0000 0.0000 0.0000 0.0000 0.0000 0.0000 0.0000 0.0000 0.0000 0.0000 0.0000 0.0000 0.0000 0.0000 0.0000 0.0000 0.0000 0.0000 0.0000 0.0000 0.0000 0.0000 0.0000 0.0000 0.0000 0.0000 0.0000 0.0000 0.0000 0.0000 0.0000 0.0000 0.0000 0.0000 0.0000 0.0000 0.0000 0.0000 0.0000 0.0000 0.0000 0.0000 0.0000 0.0000 0.0000 0.0000 0.0000 0.0000 0.0000 0.0000 0.0000 0.0000 0.0000 0.0000 0.0000 0.0000 0.0000 0.0000 0.0000 0.0000 0.0000 0.0000 0.0000 0.0000 0.0000 0.0000 0.0000 0.0000 0.0000 0.0000 0.0000 0.0000 0.0000 0.0000 0.0000 0.0000
0.0554 0.0609 0.0683 0.0775 0.0830 0.0849 0.0867 0.0886 0.0923 0.1033 0.1125 0.1199 0.1255 0.1292 0.1328 0.1365 0.1458 0.1476 0.1476 0.1513 0.1568 0.1661 0.1734 0.1827 0.1900 0.1919 0.1956 0.2030 0.2103 0.2214 0.2343 0.2491 0.2601 0.2675 0.2731 0.2823 0.2970 0.3192 0.3376 0.3579 0.3745 0.3948 0.4244 0.4723 0.5148 0.5535 0.5775 0.5867 0.5886 0.5904 0.5959 0.6033 0.6107 0.6181 0.6181 0.6181 0.6162 0.6162 0.6162 0.6144 0.6125 0.6162 0.6199 0.6255 0.6255 0.6236 0.6199 0.6199 0.6181 0.6162 0.6218 0.6292 0.6328 0.6328 0.6328 0.6365 0.6402 0.6402 0.6494 0.6531 0.6513 0.6476 0.6458 0.6439 0.6421 0.6347 0.6292 0.6273 0.6273 0.6292 0.6384 0.6421 0.6439 0.6476 0.6476 0.6476 0.6458 0.6458 0.6439 0.6421 0.6365 0.6273 0.6199 0.6144 0.6144 0.6125 0.6107 0.6052 0.6015 0.5978 0.5904 0.5849 0.5812 0.5775 0.5701 0.5627 0.5572 0.5517 0.5461 0.5387 0.5332 0.5258 0.5129 0.4963 0.4834 0.4705 0.4594 0.4502 0.4391 0.4299 0.4244 0.4170 0.4059 0.3948 0.3856 0.3764 0.3653 0.3561 0.3469 0.3376 0.3321 0.3266 0.3266 0.3266 0.3284 0.3266 0.3247 0.3229 0.3192 0.3155 0.3063 0.2989 0.2897 0.2841 0.2786 0.2731 0.2675 0.2583 0.2491 0.2454 0.2454 0.2454 0.2472 0.2472 0.2435 0.2399 0.2306 0.2251 0.2232 0.2177 0.2103 0.2103 0.2122 0.2140 0.2140 0.2177 0.2159 0.2159 0.2122 0.2085 0.2085 0.2066 0.2030 0.1974 0.1937 0.1937 0.1919 0.1900 0.1900 0.1900 0.1900 0.1900 0.1882 0.1845 0.1808 0.1790 0.1753 0.1716 0.1679 0.1679 0.1661 0.1642 0.1605 0.1550 0.1513 0.1476 0.1458 0.1458 0.1421 0.1402 0.1384 0.1347 0.1292 0.1199 0.1107 0.1070 0.1052 0.1089 0.1107 0.1089 0.1070 0.1052 0.1033 0.1015 0.0996 0.0959 0.0959 0.0941 0.0904 0.0830 0.0812 0.0756 0.0683 0.0590 0.0461 0.0369 0.0295 0.0203 0.0111 0.0092 0.0111 0.0166 0.0221 0.0258 0.0314 0.0424 0.0572 0.0664 0.0701 0.0738 0.0738 0.0664 0.0572 0.0480 0.0424 0.0258 0.0092 0.0018 0.0018 0.0037 0.0037 0.0037 0.0000 0.0000 0.0000 0.0000 0.0000 0.0000 0.0000 0.0000 0.0000 0.0000 0.0000 0.0000 0.0000 0.0000 0.0000 0.0000 0.0000 0.0000 0.0000 0.0000 0.0000 0.0000 0.0000 0.0000 0.0000 0.0000 0.0000 0.0000 0.0000 0.0000 0.0000 0.0000 0.0000 0.0000 0.0000 0.0000 0.0000 0.0000 0.0000 0.0000 0.0000 0.0000 0.0000 0.0000 0.0000 0.0000 0.0000 0.0000 0.0000 0.0000 0.0000 0.0000 0.0000 0.0000 0.0000 0.0000 0.0000 0.0000 0.0000 0.0000 0.0000 0.0000 0.0000 0.0000 0.0000 0.0000 0.0000 0.0000 0.0000 0.0000 0.0000 0.0000 0.0000 0.0000 0.0000 0.0000 0.0000 0.0000 0.0000 0.0000 0.0000 0.0000 0.0000 0.0000 0.0000 0.0000 0.0000 0.0000 0.0000 0.0000 0.0000 0.0000 0.0000 0.0000 0.0000 0.0000 0.0000 0.0000 0.0000 0.0000 0.0000 0.0000 0.0000 0.0000 0.0000 0.0000 0.0000 0.0000 0.0000 0.0000 0.0000 0.0000 0.0000 0.0000 0.0000 0.0000 0.0000 0.0000 0.0000 0.0000 0.0000 0.0000 0.0000 0.0000 0.0000 0.0000 0.0000 0.0000 0.0000 0.0000 0.0000 0.0000 0.0000 0.0000 0.0000 0.0000 0.0000 0.0000 0.0000 0.0000 0.0000 0.0000 0.0000 0.0000 0.0000 0.0000 0.0000 0.0000 0.0000 0.0000 0.0000 0.0000 0.0000 0.0000 0.0000 0.0000 0.0000 0.0000 0.0000 0.0000 0.0000 0.0000 0.0000 0.0000
0.0609 0.0664 0.0720 0.0793 0.0812 0.0849 0.0867 0.0886 0.0941 0.1015 0.1089 0.1144 0.1199 0.1236 0.1273 0.1328 0.1365 0.1402 0.1439 0.1494 0.1531 0.1605 0.1679 0.1753 0.1808 0.1863 0.1900 0.1956 0.2030 0.2140 0.2269 0.2399 0.2509 0.2565 0.2620 0.2712 0.2897 0.3100 0.3284 0.3413 0.3616 0.3801 0.3967 0.4244 0.4723 0.5332 0.5683 0.5923 0.5996 0.6070 0.6125 0.6218 0.6292 0.6384 0.6421 0.6439 0.6421 0.6365 0.6328 0.6347 0.6328 0.6310 0.6328 0.6365 0.6347 0.6328 0.6310 0.6310 0.6273 0.6255 0.6292 0.6365 0.6384 0.6402 0.6458 0.6458 0.6402 0.6384 0.6365 0.6365 0.6292 0.6218 0.6181 0.6181 0.6125 0.6052 0.6052 0.6052 0.6052 0.6125 0.6218 0.6255 0.6292 0.6328 0.6347 0.6328 0.6328 0.6310 0.6292 0.6273 0.6199 0.6125 0.6070 0.6033 0.5996 0.6015 0.5959 0.5904 0.5830 0.5775 0.5738 0.5701 0.5683 0.5664 0.5627 0.5572 0.5517 0.5461 0.5406 0.5314 0.5240 0.5185 0.5111 0.5000 0.4852 0.4705 0.4613 0.4520 0.4410 0.4336 0.4262 0.4207 0.4096 0.3985 0.3875 0.3801 0.3727 0.3635 0.3542 0.3432 0.3395 0.3376 0.3376 0.3395 0.3395 0.3376 0.3321 0.3284 0.3247 0.3210 0.3137 0.3044 0.2952 0.2878 0.2804 0.2731 0.2638 0.2546 0.2509 0.2509 0.2528 0.2528 0.2528 0.2509 0.2454 0.2399 0.2343 0.2288 0.2251 0.2196 0.2177 0.2214 0.2269 0.2251 0.2232 0.2214 0.2232 0.2214 0.2196 0.2159 0.2140 0.2122 0.2085 0.2048 0.1993 0.1993 0.1956 0.1937 0.1956 0.1974 0.1993 0.1993 0.1974 0.1937 0.1882 0.1863 0.1845 0.1808 0.1790 0.1771 0.1734 0.1697 0.1661 0.1624 0.1587 0.1568 0.1531 0.1513 0.1494 0.1458 0.1421 0.1384 0.1347 0.1273 0.1199 0.1162 0.1181 0.1162 0.1162 0.1162 0.1144 0.1107 0.1070 0.1052 0.1033 0.1015 0.0996 0.0978 0.0941 0.0904 0.0849 0.0793 0.0701 0.0572 0.0461 0.0369 0.0295 0.0221 0.0148 0.0111 0.0148 0.0221 0.0295 0.0332 0.0406 0.0535 0.0646 0.0720 0.0775 0.0812 0.0812 0.0738 0.0664 0.0609 0.0517 0.0387 0.0166 0.0055 0.0037 0.0037 0.0055 0.0074 0.0055 0.0000 0.0000 0.0000 0.0000 0.0000 0.0000 0.0000 0.0000 0.0000 0.0000 0.0000 0.0000 0.0000 0.0000 0.0000 0.0000 0.0000 0.0000 0.0000 0.0000 0.0000 0.0000 0.0000 0.0000 0.0000 0.0000 0.0000 0.0000 0.0000 0.0000 0.0000 0.0000 0.0000 0.0000 0.0000 0.0000 0.0000 0.0000 0.0000 0.0000 0.0000 0.0000 0.0000 0.0000 0.0000 0.0000 0.0000 0.0000 0.0000 0.0000 0.0000 0.0000 0.0000 0.0000 0.0000 0.0000 0.0000 0.0000 0.0000 0.0000 0.0000 0.0000 0.0000 0.0000 0.0000 0.0000 0.0000 0.0000 0.0000 0.0000 0.0000 0.0000 0.0000 0.0000 0.0000 0.0000 0.0000 0.0000 0.0000 0.0000 0.0000 0.0000 0.0000 0.0000 0.0000 0.0000 0.0000 0.0000 0.0000 0.0000 0.0000 0.0000 0.0000 0.0000 0.0000 0.0000 0.0000 0.0000 0.0000 0.0000 0.0000 0.0000 0.0000 0.0000 0.0000 0.0000 0.0000 0.0000 0.0000 0.0000 0.0000 0.0000 0.0000 0.0000 0.0000 0.0000 0.0000 0.0000 0.0000 0.0000 0.0000 0.0000 0.0000 0.0000 0.0000 0.0000 0.0000 0.0000 0.0000 0.0000 0.0000 0.0000 0.0000 0.0000 0.0000 0.0000 0.0000 0.0000 0.0018 0.0000 0.0000 0.0000 0.0000 0.0000 0.0000 0.0000 0.0000 0.0000 0.0000 0.0000 0.0000 0.0000 0.0000 0.0000 0.0000 0.0000 0.0000 0.0000 0.0000 0.0000 0.0000 0.0000 0.0000
