0.6281 0.6326 0.6382 0.6404 0.6393 0.6416 0.6449 0.6483 0.6528 0.6573 0.6618 0.6674 0.6719 0.6775 0.6831 0.6888 0.6944 0.6989 0.7011 0.7022 0.7022 0.7000 0.6966 0.6921 0.6876 0.6820 0.6764 0.6708 0.6663 0.6607 0.6573 0.6562 0.6584 0.6596 0.6584 0.6528 0.6483 0.6438 0.6404 0.6371 0.6348 0.6315 0.6258 0.6213 0.6180 0.6146 0.6124 0.6090 0.6022 0.5978 0.5944 0.5910 0.5854 0.5809 0.5798 0.5798 0.5798 0.5809 0.5820 0.5798 0.5753 0.5708 0.5663 0.5652 0.5685 0.5719 0.5775 0.5820 0.5876 0.5955 0.6000 0.6022 0.6045 0.6056 0.6090 0.6101 0.6090 0.6034 0.5978 0.5910 0.5865 0.5809 0.5775 0.5764 0.5764 0.5775 0.5809 0.5876 0.5966 0.6067 0.6124 0.6135 0.6124 0.6101 0.6079 0.6067 0.6034 0.6011 0.5978 0.5944 0.5910 0.5888 0.5865 0.5843 0.5820 0.5798 0.5775 0.5764 0.5753 0.5719 0.5697 0.5708 0.5742 0.5775 0.5809 0.5854 0.5921 0.6034 0.6124 0.6180 0.6213 0.6258 0.6315 0.6360 0.6404 0.6472 0.6528 0.6573 0.6618 0.6674 0.6719 0.6764 0.6798 0.6854 0.6910 0.6966 0.7000 0.7022 0.7022 0.7000 0.7000 0.7022 0.7045 0.7056 0.7079 0.7079 0.7067 0.7045 0.7011 0.6966 0.6910 0.6865 0.6843 0.6843 0.6843 0.6831 0.6831 0.6809 0.6787 0.6764 0.6719 0.6663 0.6618 0.6562 0.6506 0.6449 0.6393 0.6337 0.6292 0.6258 0.6247 0.6213 0.6191 0.6146 0.6090 0.6056 0.6045 0.6022 0.5978 0.5944 0.5921 0.5899 0.5899 0.5888 0.5865 0.5854 0.5831 0.5798 0.5742 0.5685 0.5652 0.5629 0.5629 0.5629 0.5629 0.5652 0.5685 0.5730 0.5775 0.5809 0.5809 0.5787 0.5753 0.5719 0.5685 0.5663 0.5640 0.5629 0.5618 0.5607 0.5607 0.5618 0.5652 0.5685 0.5742 0.5753 0.5764 0.5764 0.5787 0.5798 0.5787 0.5764 0.5742 0.5742 0.5753 0.5742 0.5742 0.5753 0.5787 0.5820 0.5843 0.5831 0.5809 0.5787 0.5775 0.5753 0.5742 0.5730 0.5719 0.5719 0.5764 0.5865 0.5978 0.6056 0.6112 0.6180 0.6247 0.6337 0.6416 0.6449 0.6404 0.6337 0.6281 0.6270 0.6270 0.6281 0.6292 0.6315 0.6326 0.6348 0.6360 0.6360 0.6337 0.6303 0.6270 0.6236 0.6202 0.6146 0.6079 0.6011 0.5978 0.5966 0.5966 0.5933 0.5876 0.5809 0.5764 0.5719 0.5685 0.5674 0.5652 0.5607 0.5551 0.5494 0.5483 0.5483 0.5506 0.5539 0.5573 0.5618 0.5652 0.5640 0.5618 0.5607 0.5584 0.5551 0.5528 0.5528 0.5539 0.5539 0.5528 0.5517 0.5483 0.5449 0.5427 0.5416 0.5449 0.5506 0.5573 0.5618 0.5640 0.5640 0.5618 0.5562 0.5483 0.5393 0.5292 0.5202 0.5146 0.5146 0.5169 0.5191 0.5225 0.5236 0.5247 0.5202 0.5180 0.5169 0.5157 0.5146 0.5124 0.5067 0.5011 0.4978 0.4933 0.4899 0.4899 0.4899 0.4899 0.4899 0.4899 0.4888 0.4876 0.4888 0.4899 0.4921 0.4921 0.4933 0.4933 0.4944 0.4955 0.4978 0.5022 0.5090 0.5124 0.5135 0.5157 0.5169 0.5169 0.5146 0.5112 0.5090 0.5090 0.5079 0.5034 0.4978 0.4944 0.4921 0.4888 0.4843 0.4809 0.4798 0.4820 0.4876 0.4966 0.5045 0.5112 0.5157 0.5213 0.5258 0.5270 0.5303 0.5337 0.5360 0.5404 0.5461 0.5494 0.5539 0.5584 0.5640 0.5685 0.5730 0.5787 0.5843 0.5921
0.6348 0.6427 0.6472 0.6472 0.6472 0.6461 0.6472 0.6517 0.6562 0.6596 0.6652 0.6719 0.6787 0.6865 0.6933 0.6978 0.7011 0.7056 0.7079 0.7079 0.7079 0.7079 0.7045 0.7000 0.6955 0.6910 0.6831 0.6764 0.6719 0.6685 0.6652 0.6629 0.6640 0.6640 0.6607 0.6584 0.6539 0.6494 0.6449 0.6416 0.6382 0.6348 0.6303 0.6247 0.6202 0.6191 0.6180 0.6135 0.6067 0.6022 0.5989 0.5978 0.5955 0.5944 0.5944 0.5944 0.5933 0.5921 0.5921 0.5888 0.5831 0.5775 0.5730 0.5730 0.5753 0.5809 0.5854 0.5888 0.5933 0.5978 0.6022 0.6067 0.6090 0.6124 0.6157 0.6180 0.6180 0.6169 0.6112 0.6056 0.5955 0.5876 0.5865 0.5865 0.5854 0.5854 0.5899 0.5978 0.6056 0.6146 0.6191 0.6202 0.6191 0.6169 0.6157 0.6124 0.6090 0.6067 0.6022 0.5989 0.5966 0.5944 0.5910 0.5888 0.5876 0.5865 0.5843 0.5831 0.5820 0.5787 0.5753 0.5764 0.5787 0.5820 0.5865 0.5899 0.5955 0.6034 0.6112 0.6169 0.6225 0.6270 0.6303 0.6371 0.6427 0.6472 0.6528 0.6584 0.6629 0.6685 0.6730 0.6787 0.6831 0.6865 0.6910 0.6966 0.7011 0.7022 0.7000 0.6989 0.6989 0.7011 0.7011 0.7011 0.7022 0.7034 0.7022 0.6989 0.6944 0.6899 0.6831 0.6775 0.6742 0.6753 0.6753 0.6742 0.6730 0.6719 0.6708 0.6685 0.6663 0.6607 0.6573 0.6528 0.6472 0.6427 0.6382 0.6326 0.6281 0.6236 0.6202 0.6180 0.6135 0.6090 0.6045 0.6022 0.6011 0.5978 0.5933 0.5899 0.5876 0.5865 0.5854 0.5843 0.5831 0.5809 0.5787 0.5764 0.5730 0.5663 0.5607 0.5573 0.5573 0.5562 0.5562 0.5573 0.5618 0.5685 0.5742 0.5775 0.5764 0.5742 0.5697 0.5663 0.5629 0.5584 0.5573 0.5562 0.5551 0.5551 0.5551 0.5573 0.5596 0.5640 0.5674 0.5697 0.5719 0.5730 0.5753 0.5764 0.5753 0.5719 0.5685 0.5685 0.5685 0.5697 0.5697 0.5697 0.5719 0.5742 0.5753 0.5753 0.5742 0.5742 0.5742 0.5719 0.5685 0.5652 0.5652 0.5663 0.5730 0.5843 0.5933 0.6000 0.6067 0.6135 0.6191 0.6258 0.6337 0.6360 0.6337 0.6258 0.6202 0.6180 0.6191 0.6202 0.6202 0.6236 0.6258 0.6281 0.6281 0.6270 0.6247 0.6202 0.6169 0.6135 0.6101 0.6056 0.6011 0.5933 0.5876 0.5854 0.5854 0.5854 0.5831 0.5787 0.5742 0.5685 0.5652 0.5629 0.5596 0.5551 0.5494 0.5449 0.5438 0.5438 0.5449 0.5472 0.5506 0.5562 0.5584 0.5573 0.5562 0.5539 0.5539 0.5517 0.5483 0.5472 0.5483 0.5494 0.5494 0.5472 0.5438 0.5393 0.5371 0.5371 0.5393 0.5472 0.5539 0.5562 0.5573 0.5562 0.5539 0.5506 0.5449 0.5360 0.5258 0.5169 0.5124 0.5101 0.5101 0.5112 0.5135 0.5146 0.5146 0.5135 0.5135 0.5124 0.5124 0.5124 0.5101 0.5045 0.4966 0.4910 0.4865 0.4865 0.4865 0.4854 0.4865 0.4876 0.4876 0.4865 0.4854 0.4854 0.4854 0.4843 0.4843 0.4843 0.4854 0.4876 0.4888 0.4910 0.4955 0.5022 0.5079 0.5101 0.5101 0.5112 0.5112 0.5101 0.5067 0.5056 0.5045 0.5034 0.4989 0.4933 0.4888 0.4876 0.4843 0.4787 0.4742 0.4764 0.4809 0.4888 0.4989 0.5067 0.5101 0.5135 0.5180 0.5202 0.5225 0.5258 0.5292 0.5326 0.5371 0.5438 0.5494 0.5539 0.5596 0.5640 0.5685 0.5719 0.5775 0.5854 0.5921
0.6404 0.6472 0.6528 0.6562 0.6551 0.6539 0.6539 0.6562 0.6596 0.6640 0.6697 0.6753 0.6820 0.6910 0.6966 0.7000 0.7034 0.7079 0.7112 0.7135 0.7146 0.7157 0.7146 0.7090 0.7034 0.6978 0.6933 0.6865 0.6798 0.6764 0.6730 0.6708 0.6719 0.6685 0.6652 0.6618 0.6584 0.6528 0.6494 0.6449 0.6416 0.6393 0.6348 0.6292 0.6258 0.6225 0.6202 0.6169 0.6124 0.6090 0.6079 0.6090 0.6101 0.6079 0.6056 0.6045 0.6022 0.5989 0.5966 0.5921 0.5865 0.5831 0.5809 0.5809 0.5843 0.5876 0.5933 0.5955 0.5978 0.6000 0.6067 0.6135 0.6191 0.6225 0.6247 0.6258 0.6270 0.6247 0.6202 0.6146 0.6067 0.6000 0.5966 0.5955 0.5933 0.5944 0.5989 0.6045 0.6135 0.6213 0.6281 0.6292 0.6292 0.6270 0.6236 0.6180 0.6135 0.6101 0.6079 0.6067 0.6034 0.5989 0.5955 0.5933 0.5921 0.5910 0.5910 0.5910 0.5910 0.5854 0.5809 0.5798 0.5809 0.5854 0.5899 0.5944 0.6000 0.6045 0.6101 0.6157 0.6213 0.6270 0.6337 0.6393 0.6449 0.6483 0.6539 0.6596 0.6640 0.6685 0.6742 0.6798 0.6843 0.6888 0.6921 0.6955 0.7000 0.7000 0.6989 0.6978 0.6978 0.6978 0.6978 0.6966 0.6966 0.6978 0.6966 0.6921 0.6876 0.6831 0.6787 0.6753 0.6719 0.6708 0.6697 0.6685 0.6674 0.6663 0.6640 0.6618 0.6584 0.6551 0.6528 0.6506 0.6461 0.6404 0.6360 0.6326 0.6281 0.6225 0.6180 0.6135 0.6090 0.6045 0.6011 0.5989 0.5966 0.5933 0.5888 0.5865 0.5843 0.5820 0.5798 0.5798 0.5775 0.5753 0.5730 0.5719 0.5685 0.5640 0.5584 0.5551 0.5528 0.5506 0.5483 0.5506 0.5562 0.5629 0.5697 0.5719 0.5719 0.5685 0.5652 0.5596 0.5539 0.5506 0.5494 0.5506 0.5506 0.5494 0.5506 0.5528 0.5551 0.5573 0.5607 0.5629 0.5674 0.5719 0.5730 0.5742 0.5742 0.5697 0.5652 0.5629 0.5629 0.5640 0.5640 0.5652 0.5663 0.5674 0.5685 0.5674 0.5663 0.5674 0.5674 0.5663 0.5629 0.5607 0.5584 0.5618 0.5685 0.5787 0.5876 0.5933 0.5989 0.6056 0.6124 0.6191 0.6247 0.6270 0.6213 0.6157 0.6101 0.6090 0.6090 0.6101 0.6112 0.6135 0.6169 0.6191 0.6180 0.6169 0.6146 0.6135 0.6112 0.6056 0.6000 0.5944 0.5888 0.5831 0.5775 0.5730 0.5730 0.5753 0.5764 0.5753 0.5708 0.5652 0.5618 0.5584 0.5539 0.5483 0.5438 0.5404 0.5382 0.5382 0.5393 0.5416 0.5461 0.5517 0.5539 0.5528 0.5517 0.5506 0.5494 0.5472 0.5427 0.5393 0.5393 0.5404 0.5416 0.5416 0.5382 0.5348 0.5315 0.5303 0.5337 0.5404 0.5472 0.5506 0.5506 0.5494 0.5461 0.5438 0.5393 0.5326 0.5247 0.5169 0.5124 0.5090 0.5067 0.5045 0.5045 0.5045 0.5056 0.5067 0.5067 0.5079 0.5101 0.5090 0.5067 0.5011 0.4921 0.4854 0.4820 0.4809 0.4809 0.4831 0.4843 0.4854 0.4843 0.4831 0.4809 0.4798 0.4798 0.4798 0.4775 0.4753 0.4775 0.4798 0.4831 0.4888 0.4921 0.4989 0.5034 0.5056 0.5056 0.5067 0.5079 0.5067 0.5045 0.5022 0.5011 0.4989 0.4944 0.4888 0.4831 0.4798 0.4764 0.4708 0.4708 0.4764 0.4843 0.4921 0.5000 0.5056 0.5090 0.5112 0.5146 0.5180 0.5202 0.5247 0.5281 0.5315 0.5382 0.5449 0.5494 0.5539 0.5584 0.5629 0.5674 0.5719 0.5775 0.5843 0.5910
0.6438 0.6528 0.6584 0.6629 0.6629 0.6607 0.6607 0.6607 0.6640 0.6708 0.6764 0.6809 0.6865 0.6910 0.6955 0.7000 0.7056 0.7135 0.7213 0.7247 0.7270 0.7292 0.7281 0.7225 0.7146 0.7067 0.7000 0.6944 0.6888 0.6854 0.6820 0.6809 0.6775 0.6730 0.6685 0.6652 0.6607 0.6562 0.6528 0.6494 0.6461 0.6438 0.6404 0.6371 0.6337 0.6292 0.6270 0.6247 0.6225 0.6191 0.6191 0.6191 0.6169 0.6146 0.6112 0.6079 0.6067 0.6034 0.5989 0.5944 0.5899 0.5876 0.5888 0.5899 0.5921 0.5955 0.5978 0.6000 0.6022 0.6056 0.6101 0.6157 0.6202 0.6258 0.6303 0.6315 0.6315 0.6292 0.6247 0.6191 0.6124 0.6079 0.6056 0.6045 0.6034 0.6056 0.6101 0.6146 0.6225 0.6337 0.6393 0.6427 0.6416 0.6393 0.6348 0.6270 0.6202 0.6169 0.6135 0.6112 0.6079 0.6045 0.6000 0.5978 0.5955 0.5955 0.5955 0.5966 0.5966 0.5944 0.5899 0.5865 0.5865 0.5888 0.5921 0.5966 0.6011 0.6056 0.6101 0.6169 0.6247 0.6315 0.6371 0.6416 0.6472 0.6528 0.6562 0.6607 0.6674 0.6719 0.6764 0.6809 0.6854 0.6899 0.6933 0.6966 0.6966 0.6966 0.6955 0.6955 0.6955 0.6955 0.6944 0.6933 0.6910 0.6899 0.6899 0.6876 0.6843 0.6798 0.6775 0.6730 0.6697 0.6663 0.6640 0.6629 0.6618 0.6607 0.6584 0.6562 0.6528 0.6494 0.6483 0.6461 0.6416 0.6360 0.6326 0.6292 0.6236 0.6191 0.6157 0.6124 0.6079 0.6011 0.5978 0.5944 0.5910 0.5888 0.5854 0.5831 0.5809 0.5775 0.5742 0.5719 0.5708 0.5685 0.5663 0.5640 0.5640 0.5618 0.5596 0.5539 0.5483 0.5449 0.5438 0.5472 0.5528 0.5584 0.5618 0.5652 0.5652 0.5640 0.5596 0.5517 0.5461 0.5416 0.5416 0.5438 0.5449 0.5449 0.5461 0.5472 0.5494 0.5528 0.5539 0.5584 0.5618 0.5652 0.5685 0.5697 0.5697 0.5674 0.5652 0.5618 0.5596 0.5584 0.5596 0.5607 0.5618 0.5629 0.5629 0.5629 0.5607 0.5596 0.5596 0.5584 0.5573 0.5551 0.5539 0.5562 0.5629 0.5708 0.5775 0.5843 0.5899 0.5955 0.6034 0.6124 0.6191 0.6213 0.6169 0.6090 0.6045 0.6022 0.6011 0.6011 0.6011 0.6022 0.6045 0.6067 0.6079 0.6067 0.6056 0.6045 0.6000 0.5955 0.5888 0.5820 0.5775 0.5730 0.5685 0.5640 0.5640 0.5652 0.5674 0.5685 0.5663 0.5618 0.5584 0.5539 0.5494 0.5449 0.5393 0.5360 0.5337 0.5326 0.5337 0.5371 0.5427 0.5472 0.5483 0.5483 0.5483 0.5472 0.5449 0.5416 0.5371 0.5326 0.5292 0.5292 0.5326 0.5337 0.5315 0.5292 0.5270 0.5270 0.5292 0.5348 0.5404 0.5449 0.5449 0.5416 0.5393 0.5360 0.5326 0.5292 0.5225 0.5157 0.5112 0.5079 0.5034 0.5000 0.4989 0.4989 0.4989 0.5000 0.5011 0.5022 0.5034 0.5034 0.4989 0.4944 0.4888 0.4820 0.4775 0.4775 0.4787 0.4809 0.4809 0.4809 0.4798 0.4787 0.4753 0.4742 0.4753 0.4742 0.4719 0.4708 0.4708 0.4730 0.4775 0.4831 0.4888 0.4921 0.4989 0.5022 0.5034 0.5045 0.5056 0.5045 0.5034 0.5000 0.4978 0.4944 0.4910 0.4843 0.4787 0.4742 0.4685 0.4685 0.4719 0.4787 0.4865 0.4944 0.5000 0.5056 0.5079 0.5101 0.5124 0.5157 0.5191 0.5236 0.5270 0.5326 0.5393 0.5461 0.5517 0.5562 0.5607 0.5640 0.5685 0.5730 0.5775 0.5831 0.5899
0.6472 0.6584 0.6674 0.6708 0.6708 0.6697 0.6663 0.6663 0.6685 0.6730 0.6787 0.6831 0.6888 0.6910 0.6955 0.7011 0.7101 0.7202 0.7281 0.7348 0.7382 0.7393 0.7371 0.7315 0.7247 0.7157 0.7079 0.7022 0.6966 0.6921 0.6876 0.6831 0.6798 0.6753 0.6708 0.6674 0.6629 0.6596 0.6562 0.6528 0.6506 0.6483 0.6461 0.6438 0.6393 0.6360 0.6348 0.6337 0.6303 0.6281 0.6258 0.6236 0.6213 0.6180 0.6146 0.6124 0.6101 0.6067 0.6022 0.5989 0.5966 0.5966 0.5978 0.5989 0.6022 0.6034 0.6034 0.6067 0.6090 0.6112 0.6146 0.6157 0.6191 0.6258 0.6315 0.6337 0.6337 0.6315 0.6281 0.6236 0.6202 0.6169 0.6180 0.6213 0.6236 0.6258 0.6281 0.6303 0.6360 0.6438 0.6506 0.6528 0.6517 0.6472 0.6416 0.6337 0.6281 0.6236 0.6202 0.6157 0.6124 0.6090 0.6067 0.6034 0.6011 0.6000 0.6011 0.6011 0.6022 0.6011 0.6000 0.5989 0.5955 0.5944 0.5955 0.5989 0.6045 0.6079 0.6135 0.6191 0.6258 0.6326 0.6371 0.6404 0.6472 0.6528 0.6573 0.6640 0.6719 0.6775 0.6809 0.6843 0.6888 0.6921 0.6955 0.6944 0.6944 0.6944 0.6933 0.6933 0.6933 0.6910 0.6899 0.6888 0.6876 0.6854 0.6843 0.6831 0.6809 0.6775 0.6742 0.6697 0.6663 0.6618 0.6584 0.6573 0.6551 0.6528 0.6528 0.6506 0.6461 0.6438 0.6416 0.6393 0.6371 0.6337 0.6292 0.6247 0.6202 0.6157 0.6135 0.6124 0.6067 0.6011 0.5955 0.5899 0.5854 0.5820 0.5798 0.5787 0.5753 0.5719 0.5697 0.5663 0.5629 0.5596 0.5584 0.5573 0.5573 0.5573 0.5562 0.5517 0.5461 0.5427 0.5416 0.5449 0.5506 0.5539 0.5573 0.5596 0.5596 0.5584 0.5539 0.5472 0.5393 0.5348 0.5348 0.5360 0.5360 0.5360 0.5360 0.5393 0.5427 0.5449 0.5483 0.5517 0.5551 0.5584 0.5629 0.5663 0.5674 0.5674 0.5640 0.5618 0.5596 0.5562 0.5551 0.5551 0.5562 0.5573 0.5584 0.5584 0.5562 0.5528 0.5517 0.5506 0.5494 0.5472 0.5472 0.5528 0.5584 0.5663 0.5730 0.5775 0.5831 0.5888 0.5955 0.6045 0.6124 0.6146 0.6079 0.6022 0.5966 0.5944 0.5944 0.5933 0.5933 0.5921 0.5933 0.5966 0.5978 0.5978 0.5978 0.5944 0.5910 0.5854 0.5787 0.5730 0.5674 0.5629 0.5596 0.5573 0.5573 0.5584 0.5596 0.5607 0.5607 0.5596 0.5562 0.5528 0.5449 0.5404 0.5360 0.5315 0.5292 0.5270 0.5292 0.5326 0.5382 0.5427 0.5449 0.5449 0.5449 0.5438 0.5404 0.5382 0.5348 0.5292 0.5236 0.5225 0.5247 0.5270 0.5270 0.5258 0.5236 0.5236 0.5258 0.5303 0.5348 0.5371 0.5371 0.5348 0.5337 0.5303 0.5258 0.5213 0.5180 0.5146 0.5101 0.5056 0.5000 0.4966 0.4966 0.4955 0.4933 0.4933 0.4944 0.4955 0.4955 0.4944 0.4921 0.4888 0.4831 0.4764 0.4742 0.4753 0.4775 0.4787 0.4775 0.4764 0.4753 0.4753 0.4742 0.4730 0.4708 0.4697 0.4674 0.4685 0.4697 0.4697 0.4719 0.4764 0.4798 0.4843 0.4899 0.4955 0.5000 0.5011 0.5022 0.5022 0.5011 0.4978 0.4955 0.4921 0.4876 0.4798 0.4742 0.4685 0.4652 0.4674 0.4730 0.4809 0.4888 0.4955 0.5000 0.5034 0.5056 0.5090 0.5112 0.5146 0.5169 0.5213 0.5258 0.5326 0.5416 0.5483 0.5551 0.5607 0.5640 0.5674 0.5697 0.5730 0.5764 0.5798 0.5831
0.6472 0.6596 0.6697 0.6742 0.6764 0.6764 0.6753 0.6753 0.6753 0.6775 0.6798 0.6843 0.6888 0.6933 0.6989 0.7056 0.7157 0.7247 0.7348 0.7404 0.7438 0.7427 0.7393 0.7348 0.7281 0.7225 0.7157 0.7090 0.7034 0.6978 0.6921 0.6876 0.6831 0.6787 0.6742 0.6708 0.6674 0.6629 0.6596 0.6573 0.6562 0.6539 0.6506 0.6472 0.6449 0.6416 0.6416 0.6404 0.6382 0.6348 0.6303 0.6270 0.6236 0.6202 0.6169 0.6146 0.6112 0.6090 0.6079 0.6056 0.6045 0.6045 0.6056 0.6079 0.6101 0.6112 0.6124 0.6146 0.6169 0.6191 0.6191 0.6191 0.6202 0.6247 0.6303 0.6337 0.6371 0.6360 0.6337 0.6303 0.6270 0.6281 0.6326 0.6360 0.6360 0.6371 0.6393 0.6438 0.6483 0.6539 0.6584 0.6584 0.6573 0.6528 0.6461 0.6382 0.6315 0.6270 0.6236 0.6191 0.6146 0.6124 0.6101 0.6067 0.6056 0.6056 0.6067 0.6079 0.6101 0.6112 0.6101 0.6090 0.6067 0.6022 0.6022 0.6034 0.6067 0.6101 0.6146 0.6191 0.6236 0.6281 0.6337 0.6393 0.6461 0.6539 0.6596 0.6663 0.6753 0.6809 0.6843 0.6876 0.6910 0.6921 0.6921 0.6910 0.6910 0.6910 0.6899 0.6888 0.6876 0.6854 0.6843 0.6843 0.6843 0.6843 0.6820 0.6798 0.6775 0.6753 0.6708 0.6685 0.6652 0.6607 0.6573 0.6551 0.6528 0.6494 0.6472 0.6449 0.6416 0.6382 0.6337 0.6326 0.6315 0.6292 0.6258 0.6202 0.6169 0.6135 0.6101 0.6079 0.6056 0.6022 0.5955 0.5888 0.5820 0.5764 0.5742 0.5730 0.5708 0.5685 0.5640 0.5607 0.5562 0.5539 0.5517 0.5517 0.5528 0.5539 0.5528 0.5494 0.5438 0.5393 0.5382 0.5416 0.5461 0.5506 0.5539 0.5562 0.5562 0.5551 0.5506 0.5449 0.5360 0.5315 0.5292 0.5270 0.5270 0.5270 0.5281 0.5315 0.5337 0.5371 0.5393 0.5427 0.5472 0.5539 0.5596 0.5640 0.5663 0.5652 0.5629 0.5596 0.5551 0.5517 0.5483 0.5483 0.5494 0.5506 0.5517 0.5506 0.5483 0.5472 0.5449 0.5427 0.5416 0.5416 0.5438 0.5483 0.5562 0.5607 0.5674 0.5730 0.5787 0.5843 0.5910 0.5955 0.6000 0.5989 0.5966 0.5921 0.5876 0.5876 0.5865 0.5854 0.5831 0.5831 0.5854 0.5876 0.5899 0.5888 0.5876 0.5854 0.5831 0.5775 0.5719 0.5652 0.5584 0.5539 0.5528 0.5517 0.5517 0.5528 0.5539 0.5562 0.5562 0.5562 0.5562 0.5494 0.5427 0.5371 0.5315 0.5270 0.5225 0.5225 0.5258 0.5292 0.5326 0.5360 0.5393 0.5404 0.5416 0.5404 0.5371 0.5337 0.5315 0.5247 0.5191 0.5169 0.5169 0.5191 0.5213 0.5213 0.5202 0.5202 0.5225 0.5258 0.5303 0.5326 0.5326 0.5326 0.5303 0.5270 0.5213 0.5169 0.5146 0.5112 0.5067 0.5011 0.4955 0.4944 0.4944 0.4921 0.4888 0.4865 0.4865 0.4876 0.4888 0.4876 0.4854 0.4809 0.4753 0.4685 0.4685 0.4719 0.4753 0.4753 0.4753 0.4742 0.4730 0.4730 0.4742 0.4730 0.4697 0.4674 0.4663 0.4652 0.4663 0.4674 0.4674 0.4685 0.4719 0.4764 0.4820 0.4888 0.4933 0.4955 0.4966 0.4978 0.4955 0.4921 0.4899 0.4876 0.4831 0.4764 0.4685 0.4652 0.4640 0.4652 0.4708 0.4798 0.4888 0.4933 0.4978 0.5000 0.5034 0.5056 0.5079 0.5112 0.5135 0.5180 0.5247 0.5326 0.5416 0.5483 0.5528 0.5584 0.5629 0.5663 0.5697 0.5719 0.5742 0.5753 0.5787
0.6461 0.6607 0.6719 0.6775 0.6798 0.6809 0.6809 0.6809 0.6809 0.6820 0.6843 0.6865 0.6899 0.6944 0.7011 0.7079 0.7169 0.7270 0.7360 0.7438 0.7472 0.7461 0.7416 0.7371 0.7326 0.7270 0.7202 0.7146 0.7090 0.7022 0.6966 0.6933 0.6888 0.6843 0.6798 0.6753 0.6719 0.6685 0.6652 0.6640 0.6618 0.6584 0.6539 0.6517 0.6494 0.6472 0.6472 0.6472 0.6438 0.6382 0.6348 0.6303 0.6270 0.6236 0.6202 0.6180 0.6146 0.6112 0.6112 0.6124 0.6101 0.6090 0.6101 0.6135 0.6157 0.6191 0.6213 0.6225 0.6236 0.6236 0.6236 0.6236 0.6225 0.6258 0.6315 0.6371 0.6404 0.6416 0.6393 0.6371 0.6371 0.6382 0.6416 0.6438 0.6438 0.6438 0.6449 0.6494 0.6539 0.6596 0.6629 0.6629 0.6607 0.6562 0.6494 0.6427 0.6382 0.6337 0.6292 0.6258 0.6213 0.6180 0.6157 0.6124 0.6112 0.6112 0.6124 0.6135 0.6157 0.6180 0.6191 0.6202 0.6180 0.6146 0.6101 0.6079 0.6079 0.6112 0.6157 0.6213 0.6247 0.6292 0.6348 0.6404 0.6461 0.6528 0.6607 0.6674 0.6742 0.6820 0.6865 0.6899 0.6910 0.6899 0.6888 0.6888 0.6876 0.6865 0.6854 0.6831 0.6809 0.6775 0.6775 0.6787 0.6798 0.6787 0.6764 0.6753 0.6742 0.6719 0.6697 0.6674 0.6629 0.6584 0.6562 0.6551 0.6517 0.6472 0.6438 0.6404 0.6371 0.6303 0.6258 0.6247 0.6247 0.6225 0.6191 0.6157 0.6135 0.6090 0.6056 0.6045 0.6022 0.6000 0.5966 0.5899 0.5820 0.5764 0.5719 0.5685 0.5663 0.5629 0.5607 0.5573 0.5528 0.5506 0.5494 0.5483 0.5483 0.5483 0.5472 0.5449 0.5404 0.5360 0.5348 0.5382 0.5427 0.5472 0.5494 0.5517 0.5517 0.5506 0.5461 0.5393 0.5337 0.5281 0.5236 0.5213 0.5202 0.5202 0.5213 0.5236 0.5270 0.5303 0.5326 0.5360 0.5416 0.5506 0.5573 0.5618 0.5629 0.5629 0.5607 0.5562 0.5517 0.5461 0.5427 0.5427 0.5427 0.5427 0.5427 0.5416 0.5404 0.5371 0.5360 0.5348 0.5348 0.5360 0.5393 0.5449 0.5506 0.5551 0.5607 0.5663 0.5730 0.5798 0.5843 0.5876 0.5876 0.5854 0.5843 0.5809 0.5787 0.5787 0.5775 0.5775 0.5764 0.5753 0.5764 0.5787 0.5809 0.5798 0.5787 0.5787 0.5764 0.5730 0.5663 0.5596 0.5528 0.5494 0.5472 0.5461 0.5461 0.5472 0.5483 0.5506 0.5517 0.5517 0.5517 0.5472 0.5404 0.5348 0.5281 0.5213 0.5169 0.5169 0.5202 0.5236 0.5258 0.5303 0.5348 0.5371 0.5371 0.5348 0.5315 0.5281 0.5258 0.5202 0.5157 0.5112 0.5101 0.5124 0.5157 0.5169 0.5157 0.5169 0.5180 0.5225 0.5270 0.5303 0.5326 0.5326 0.5303 0.5258 0.5202 0.5157 0.5124 0.5079 0.5034 0.4978 0.4921 0.4899 0.4888 0.4865 0.4843 0.4820 0.4809 0.4820 0.4809 0.4798 0.4753 0.4708 0.4652 0.4618 0.4618 0.4663 0.4697 0.4719 0.4719 0.4708 0.4697 0.4708 0.4719 0.4719 0.4697 0.4663 0.4652 0.4640 0.4640 0.4640 0.4640 0.4640 0.4663 0.4708 0.4764 0.4831 0.4888 0.4910 0.4921 0.4910 0.4899 0.4888 0.4854 0.4798 0.4753 0.4685 0.4640 0.4618 0.4596 0.4596 0.4652 0.4753 0.4843 0.4910 0.4955 0.4978 0.4989 0.5022 0.5056 0.5079 0.5112 0.5146 0.5213 0.5315 0.5393 0.5449 0.5483 0.5517 0.5562 0.5607 0.5652 0.5685 0.5708 0.5730 0.5742
0.6483 0.6618 0.6730 0.6787 0.6798 0.6809 0.6820 0.6831 0.6843 0.6865 0.6899 0.6921 0.6944 0.6978 0.7056 0.7112 0.7169 0.7247 0.7371 0.7472 0.7506 0.7506 0.7449 0.7404 0.7360 0.7315 0.7270 0.7202 0.7146 0.7090 0.7011 0.6955 0.6910 0.6865 0.6820 0.6787 0.6775 0.6753 0.6730 0.6708 0.6674 0.6640 0.6607 0.6584 0.6573 0.6539 0.6528 0.6517 0.6483 0.6438 0.6393 0.6348 0.6315 0.6281 0.6247 0.6213 0.6169 0.6146 0.6146 0.6157 0.6157 0.6157 0.6169 0.6191 0.6225 0.6258 0.6281 0.6292 0.6292 0.6292 0.6281 0.6281 0.6281 0.6303 0.6360 0.6416 0.6461 0.6483 0.6472 0.6449 0.6438 0.6449 0.6461 0.6494 0.6517 0.6517 0.6517 0.6539 0.6573 0.6618 0.6640 0.6640 0.6629 0.6596 0.6539 0.6494 0.6449 0.6404 0.6360 0.6326 0.6303 0.6281 0.6247 0.6213 0.6213 0.6202 0.6191 0.6191 0.6202 0.6225 0.6247 0.6258 0.6247 0.6225 0.6202 0.6180 0.6169 0.6180 0.6225 0.6270 0.6292 0.6337 0.6393 0.6449 0.6494 0.6551 0.6640 0.6730 0.6787 0.6854 0.6888 0.6910 0.6899 0.6888 0.6888 0.6876 0.6854 0.6831 0.6809 0.6787 0.6753 0.6730 0.6719 0.6730 0.6742 0.6730 0.6719 0.6708 0.6697 0.6674 0.6652 0.6640 0.6596 0.6562 0.6539 0.6517 0.6494 0.6449 0.6427 0.6382 0.6326 0.6258 0.6213 0.6191 0.6169 0.6146 0.6124 0.6090 0.6056 0.6034 0.6011 0.5989 0.5978 0.5966 0.5944 0.5921 0.5865 0.5798 0.5742 0.5697 0.5640 0.5618 0.5596 0.5551 0.5506 0.5483 0.5461 0.5427 0.5416 0.5416 0.5416 0.5393 0.5360 0.5326 0.5292 0.5326 0.5382 0.5427 0.5461 0.5461 0.5472 0.5449 0.5393 0.5337 0.5303 0.5258 0.5213 0.5169 0.5135 0.5124 0.5135 0.5169 0.5213 0.5225 0.5258 0.5303 0.5371 0.5449 0.5517 0.5562 0.5584 0.5584 0.5539 0.5494 0.5438 0.5393 0.5371 0.5348 0.5348 0.5337 0.5348 0.5337 0.5315 0.5281 0.5270 0.5281 0.5292 0.5315 0.5348 0.5416 0.5483 0.5506 0.5539 0.5596 0.5674 0.5742 0.5798 0.5820 0.5809 0.5775 0.5742 0.5708 0.5685 0.5685 0.5685 0.5685 0.5697 0.5697 0.5719 0.5742 0.5753 0.5753 0.5742 0.5730 0.5697 0.5640 0.5596 0.5539 0.5494 0.5438 0.5404 0.5393 0.5393 0.5416 0.5438 0.5461 0.5472 0.5461 0.5449 0.5416 0.5360 0.5292 0.5213 0.5169 0.5135 0.5135 0.5146 0.5180 0.5225 0.5247 0.5292 0.5326 0.5326 0.5303 0.5258 0.5225 0.5180 0.5146 0.5101 0.5045 0.5034 0.5067 0.5112 0.5124 0.5135 0.5135 0.5157 0.5180 0.5225 0.5270 0.5303 0.5315 0.5315 0.5281 0.5236 0.5180 0.5124 0.5079 0.5034 0.4966 0.4876 0.4843 0.4820 0.4820 0.4798 0.4775 0.4753 0.4753 0.4742 0.4708 0.4663 0.4618 0.4584 0.4562 0.4584 0.4629 0.4652 0.4663 0.4674 0.4685 0.4685 0.4674 0.4685 0.4697 0.4663 0.4640 0.4629 0.4618 0.4618 0.4618 0.4618 0.4607 0.4607 0.4629 0.4674 0.4730 0.4798 0.4843 0.4876 0.4876 0.4876 0.4865 0.4820 0.4764 0.4708 0.4652 0.4607 0.4562 0.4539 0.4539 0.4618 0.4708 0.4820 0.4899 0.4933 0.4944 0.4955 0.4989 0.5011 0.5056 0.5090 0.5124 0.5191 0.5258 0.5337 0.5393 0.5427 0.5461 0.5494 0.5528 0.5584 0.5629 0.5674 0.5708 0.5719
0.6494 0.6618 0.6719 0.6775 0.6798 0.6798 0.6820 0.6854 0.6865 0.6899 0.6955 0.7000 0.7011 0.7034 0.7090 0.7135 0.7191 0.7292 0.7427 0.7494 0.7528 0.7517 0.7494 0.7449 0.7404 0.7360 0.7281 0.7202 0.7157 0.7112 0.7045 0.6978 0.6933 0.6899 0.6865 0.6843 0.6820 0.6809 0.6798 0.6775 0.6742 0.6697 0.6663 0.6652 0.6629 0.6607 0.6573 0.6551 0.6528 0.6483 0.6427 0.6382 0.6337 0.6315 0.6281 0.6258 0.6225 0.6213 0.6213 0.6225 0.6236 0.6236 0.6247 0.6258 0.6270 0.6303 0.6326 0.6348 0.6348 0.6337 0.6348 0.6326 0.6326 0.6348 0.6393 0.6438 0.6506 0.6528 0.6517 0.6506 0.6494 0.6494 0.6506 0.6528 0.6562 0.6584 0.6584 0.6573 0.6596 0.6629 0.6652 0.6652 0.6629 0.6607 0.6584 0.6539 0.6506 0.6472 0.6427 0.6404 0.6382 0.6348 0.6315 0.6292 0.6281 0.6258 0.6247 0.6247 0.6258 0.6281 0.6315 0.6360 0.6371 0.6337 0.6315 0.6281 0.6258 0.6258 0.6281 0.6315 0.6337 0.6382 0.6449 0.6506 0.6562 0.6640 0.6708 0.6775 0.6831 0.6876 0.6899 0.6888 0.6876 0.6876 0.6865 0.6854 0.6820 0.6787 0.6753 0.6719 0.6697 0.6697 0.6685 0.6685 0.6674 0.6674 0.6674 0.6674 0.6663 0.6640 0.6618 0.6596 0.6573 0.6539 0.6506 0.6483 0.6449 0.6416 0.6382 0.6337 0.6292 0.6247 0.6213 0.6169 0.6124 0.6090 0.6056 0.6034 0.6011 0.5978 0.5944 0.5933 0.5933 0.5921 0.5921 0.5899 0.5843 0.5798 0.5764 0.5719 0.5685 0.5640 0.5607 0.5551 0.5494 0.5461 0.5416 0.5382 0.5360 0.5348 0.5360 0.5348 0.5326 0.5281 0.5258 0.5281 0.5326 0.5371 0.5404 0.5416 0.5427 0.5404 0.5360 0.5326 0.5270 0.5213 0.5146 0.5101 0.5067 0.5034 0.5045 0.5079 0.5101 0.5124 0.5169 0.5247 0.5315 0.5382 0.5427 0.5472 0.5506 0.5494 0.5461 0.5404 0.5348 0.5315 0.5303 0.5292 0.5270 0.5270 0.5270 0.5270 0.5247 0.5213 0.5213 0.5213 0.5236 0.5281 0.5326 0.5393 0.5449 0.5461 0.5483 0.5539 0.5607 0.5674 0.5742 0.5764 0.5742 0.5708 0.5663 0.5629 0.5618 0.5596 0.5596 0.5596 0.5618 0.5663 0.5674 0.5697 0.5708 0.5685 0.5663 0.5640 0.5607 0.5562 0.5517 0.5483 0.5427 0.5360 0.5337 0.5326 0.5337 0.5371 0.5393 0.5404 0.5416 0.5416 0.5404 0.5360 0.5303 0.5236 0.5169 0.5101 0.5067 0.5090 0.5112 0.5124 0.5157 0.5191 0.5236 0.5270 0.5270 0.5247 0.5213 0.5169 0.5135 0.5101 0.5045 0.5000 0.4989 0.5022 0.5067 0.5101 0.5112 0.5112 0.5124 0.5146 0.5180 0.5236 0.5281 0.5303 0.5303 0.5292 0.5270 0.5236 0.5191 0.5124 0.5045 0.4966 0.4888 0.4798 0.4775 0.4764 0.4753 0.4742 0.4719 0.4697 0.4685 0.4640 0.4562 0.4528 0.4506 0.4517 0.4562 0.4596 0.4618 0.4618 0.4629 0.4640 0.4652 0.4652 0.4652 0.4652 0.4640 0.4629 0.4607 0.4596 0.4596 0.4584 0.4573 0.4551 0.4551 0.4562 0.4618 0.4674 0.4719 0.4775 0.4798 0.4809 0.4809 0.4809 0.4798 0.4742 0.4674 0.4618 0.4573 0.4528 0.4506 0.4551 0.4629 0.4719 0.4820 0.4888 0.4921 0.4933 0.4944 0.4966 0.4989 0.5022 0.5056 0.5101 0.5135 0.5202 0.5281 0.5337 0.5382 0.5416 0.5449 0.5494 0.5539 0.5584 0.5629 0.5663 0.5685
0.6506 0.6618 0.6708 0.6775 0.6787 0.6809 0.6831 0.6865 0.6888 0.6944 0.7034 0.7079 0.7090 0.7112 0.7135 0.7202 0.7281 0.7404 0.7494 0.7528 0.7539 0.7528 0.7517 0.7483 0.7438 0.7360 0.7270 0.7202 0.7135 0.7079 0.7034 0.7000 0.6978 0.6966 0.6921 0.6888 0.6865 0.6843 0.6831 0.6820 0.6775 0.6753 0.6730 0.6730 0.6697 0.6663 0.6618 0.6596 0.6573 0.6528 0.6472 0.6416 0.6371 0.6337 0.6326 0.6303 0.6292 0.6303 0.6303 0.6303 0.6303 0.6292 0.6292 0.6315 0.6337 0.6360 0.6371 0.6393 0.6404 0.6416 0.6416 0.6393 0.6393 0.6416 0.6449 0.6483 0.6528 0.6539 0.6551 0.6551 0.6528 0.6528 0.6528 0.6539 0.6551 0.6596 0.6607 0.6607 0.6618 0.6652 0.6674 0.6674 0.6652 0.6629 0.6618 0.6584 0.6539 0.6517 0.6494 0.6472 0.6438 0.6404 0.6382 0.6360 0.6348 0.6326 0.6303 0.6303 0.6303 0.6337 0.6393 0.6449 0.6472 0.6461 0.6427 0.6371 0.6337 0.6315 0.6315 0.6337 0.6371 0.6427 0.6506 0.6573 0.6640 0.6708 0.6753 0.6787 0.6831 0.6865 0.6876 0.6865 0.6854 0.6843 0.6831 0.6798 0.6787 0.6753 0.6719 0.6685 0.6663 0.6652 0.6640 0.6629 0.6607 0.6607 0.6629 0.6629 0.6607 0.6573 0.6562 0.6551 0.6539 0.6517 0.6483 0.6438 0.6393 0.6360 0.6315 0.6281 0.6247 0.6236 0.6202 0.6169 0.6112 0.6056 0.6011 0.5989 0.5966 0.5921 0.5888 0.5865 0.5865 0.5865 0.5854 0.5831 0.5787 0.5764 0.5730 0.5708 0.5674 0.5640 0.5584 0.5528 0.5483 0.5427 0.5382 0.5337 0.5303 0.5281 0.5281 0.5281 0.5258 0.5236 0.5225 0.5236 0.5270 0.5315 0.5348 0.5371 0.5382 0.5382 0.5337 0.5292 0.5236 0.5157 0.5090 0.5045 0.5022 0.4989 0.4989 0.5011 0.5034 0.5056 0.5112 0.5191 0.5270 0.5326 0.5360 0.5393 0.5404 0.5404 0.5371 0.5315 0.5258 0.5236 0.5225 0.5225 0.5225 0.5225 0.5225 0.5202 0.5180 0.5146 0.5146 0.5157 0.5180 0.5213 0.5270 0.5326 0.5371 0.5404 0.5438 0.5483 0.5551 0.5629 0.5685 0.5708 0.5685 0.5640 0.5607 0.5573 0.5562 0.5551 0.5539 0.5539 0.5584 0.5629 0.5652 0.5652 0.5640 0.5629 0.5607 0.5596 0.5551 0.5506 0.5461 0.5427 0.5360 0.5315 0.5292 0.5270 0.5270 0.5292 0.5315 0.5337 0.5348 0.5371 0.5348 0.5303 0.5236 0.5169 0.5090 0.5022 0.5000 0.5022 0.5056 0.5090 0.5101 0.5135 0.5169 0.5180 0.5191 0.5180 0.5157 0.5135 0.5090 0.5045 0.5000 0.4955 0.4955 0.5000 0.5056 0.5079 0.5079 0.5079 0.5079 0.5101 0.5135 0.5180 0.5213 0.5258 0.5281 0.5303 0.5303 0.5281 0.5213 0.5124 0.5022 0.4933 0.4854 0.4787 0.4742 0.4719 0.4708 0.4685 0.4674 0.4640 0.4607 0.4562 0.4483 0.4438 0.4438 0.4483 0.4528 0.4573 0.4584 0.4584 0.4596 0.4607 0.4629 0.4629 0.4618 0.4618 0.4618 0.4596 0.4584 0.4584 0.4573 0.4551 0.4528 0.4528 0.4517 0.4551 0.4584 0.4640 0.4697 0.4730 0.4753 0.4742 0.4742 0.4764 0.4730 0.4652 0.4607 0.4573 0.4517 0.4494 0.4494 0.4539 0.4640 0.4730 0.4809 0.4876 0.4899 0.4910 0.4921 0.4944 0.4966 0.5000 0.5022 0.5067 0.5112 0.5180 0.5247 0.5303 0.5337 0.5382 0.5427 0.5461 0.5506 0.5528 0.5551 0.5596 0.5618
0.6528 0.6618 0.6697 0.6742 0.6775 0.6798 0.6831 0.6865 0.6888 0.6966 0.7045 0.7101 0.7146 0.7191 0.7247 0.7315 0.7416 0.7472 0.7517 0.7539 0.7551 0.7539 0.7517 0.7483 0.7438 0.7371 0.7303 0.7236 0.7146 0.7090 0.7045 0.7034 0.7022 0.7000 0.6978 0.6933 0.6910 0.6888 0.6876 0.6854 0.6831 0.6809 0.6787 0.6775 0.6742 0.6708 0.6674 0.6640 0.6607 0.6562 0.6517 0.6461 0.6416 0.6404 0.6382 0.6371 0.6348 0.6360 0.6371 0.6360 0.6348 0.6326 0.6348 0.6382 0.6404 0.6416 0.6427 0.6461 0.6494 0.6506 0.6494 0.6472 0.6461 0.6472 0.6483 0.6517 0.6551 0.6573 0.6573 0.6562 0.6562 0.6562 0.6584 0.6584 0.6584 0.6596 0.6607 0.6629 0.6652 0.6685 0.6708 0.6708 0.6685 0.6663 0.6640 0.6607 0.6573 0.6562 0.6551 0.6539 0.6494 0.6449 0.6438 0.6427 0.6427 0.6416 0.6393 0.6371 0.6382 0.6416 0.6461 0.6506 0.6539 0.6539 0.6517 0.6449 0.6416 0.6393 0.6393 0.6416 0.6449 0.6528 0.6596 0.6640 0.6697 0.6753 0.6775 0.6798 0.6831 0.6865 0.6865 0.6854 0.6831 0.6820 0.6798 0.6775 0.6764 0.6753 0.6719 0.6663 0.6640 0.6629 0.6618 0.6596 0.6573 0.6573 0.6584 0.6584 0.6562 0.6539 0.6517 0.6494 0.6472 0.6461 0.6438 0.6404 0.6371 0.6315 0.6258 0.6202 0.6180 0.6169 0.6169 0.6135 0.6079 0.6022 0.5978 0.5944 0.5910 0.5854 0.5820 0.5809 0.5798 0.5798 0.5775 0.5742 0.5719 0.5708 0.5697 0.5685 0.5663 0.5618 0.5562 0.5506 0.5438 0.5393 0.5348 0.5292 0.5258 0.5225 0.5213 0.5213 0.5191 0.5180 0.5180 0.5180 0.5213 0.5258 0.5292 0.5315 0.5326 0.5326 0.5303 0.5281 0.5202 0.5135 0.5067 0.5011 0.4978 0.4955 0.4955 0.4978 0.5000 0.5022 0.5056 0.5112 0.5180 0.5236 0.5281 0.5315 0.5326 0.5303 0.5270 0.5213 0.5169 0.5157 0.5169 0.5169 0.5169 0.5169 0.5146 0.5135 0.5112 0.5101 0.5112 0.5124 0.5146 0.5169 0.5213 0.5258 0.5303 0.5337 0.5382 0.5427 0.5483 0.5551 0.5618 0.5640 0.5618 0.5596 0.5573 0.5551 0.5539 0.5528 0.5528 0.5539 0.5573 0.5607 0.5629 0.5618 0.5607 0.5596 0.5573 0.5551 0.5506 0.5461 0.5416 0.5360 0.5315 0.5270 0.5247 0.5225 0.5213 0.5225 0.5247 0.5270 0.5303 0.5303 0.5292 0.5236 0.5169 0.5101 0.5034 0.4955 0.4921 0.4955 0.5000 0.5045 0.5056 0.5067 0.5101 0.5124 0.5124 0.5112 0.5090 0.5067 0.5022 0.4966 0.4921 0.4899 0.4921 0.4955 0.5000 0.5022 0.5034 0.5034 0.5045 0.5056 0.5079 0.5124 0.5169 0.5213 0.5270 0.5303 0.5315 0.5281 0.5225 0.5101 0.4989 0.4899 0.4831 0.4753 0.4697 0.4674 0.4652 0.4640 0.4618 0.4584 0.4551 0.4483 0.4416 0.4371 0.4404 0.4449 0.4494 0.4539 0.4562 0.4573 0.4573 0.4584 0.4584 0.4584 0.4584 0.4584 0.4562 0.4551 0.4539 0.4539 0.4528 0.4517 0.4506 0.4506 0.4506 0.4517 0.4551 0.4584 0.4629 0.4652 0.4674 0.4685 0.4708 0.4708 0.4674 0.4607 0.4539 0.4494 0.4461 0.4461 0.4483 0.4539 0.4640 0.4730 0.4787 0.4831 0.4865 0.4888 0.4899 0.4910 0.4921 0.4966 0.5011 0.5056 0.5112 0.5169 0.5236 0.5258 0.5258 0.5315 0.5371 0.5427 0.5472 0.5494 0.5517 0.5551 0.5573
0.6573 0.6629 0.6674 0.6719 0.6742 0.6787 0.6820 0.6854 0.6910 0.6966 0.7034 0.7090 0.7157 0.7213 0.7303 0.7382 0.7427 0.7461 0.7494 0.7517 0.7517 0.7517 0.7494 0.7472 0.7427 0.7382 0.7326 0.7258 0.7191 0.7124 0.7090 0.7067 0.7045 0.7022 0.7000 0.6966 0.6944 0.6921 0.6899 0.6888 0.6888 0.6876 0.6865 0.6831 0.6787 0.6764 0.6730 0.6685 0.6652 0.6607 0.6551 0.6494 0.6472 0.6461 0.6461 0.6438 0.6416 0.6416 0.6427 0.6427 0.6393 0.6371 0.6382 0.6404 0.6427 0.6449 0.6483 0.6551 0.6596 0.6618 0.6584 0.6551 0.6528 0.6517 0.6528 0.6551 0.6584 0.6607 0.6618 0.6607 0.6607 0.6629 0.6640 0.6640 0.6640 0.6640 0.6652 0.6652 0.6685 0.6730 0.6753 0.6753 0.6730 0.6697 0.6674 0.6640 0.6618 0.6607 0.6596 0.6584 0.6551 0.6517 0.6494 0.6494 0.6506 0.6506 0.6472 0.6472 0.6472 0.6483 0.6517 0.6551 0.6584 0.6596 0.6551 0.6506 0.6472 0.6449 0.6449 0.6494 0.6562 0.6618 0.6663 0.6685 0.6742 0.6787 0.6820 0.6854 0.6888 0.6876 0.6865 0.6854 0.6831 0.6809 0.6798 0.6787 0.6775 0.6753 0.6719 0.6685 0.6652 0.6629 0.6618 0.6584 0.6562 0.6551 0.6551 0.6539 0.6528 0.6494 0.6472 0.6438 0.6416 0.6393 0.6393 0.6360 0.6315 0.6258 0.6180 0.6124 0.6090 0.6079 0.6067 0.6045 0.6022 0.5978 0.5944 0.5899 0.5854 0.5809 0.5787 0.5775 0.5753 0.5719 0.5697 0.5663 0.5663 0.5652 0.5663 0.5674 0.5652 0.5607 0.5539 0.5472 0.5404 0.5360 0.5315 0.5281 0.5225 0.5191 0.5180 0.5157 0.5135 0.5124 0.5135 0.5135 0.5169 0.5180 0.5213 0.5247 0.5270 0.5281 0.5270 0.5236 0.5180 0.5112 0.5045 0.4989 0.4955 0.4933 0.4921 0.4933 0.4955 0.4978 0.4989 0.5034 0.5090 0.5157 0.5202 0.5236 0.5247 0.5236 0.5191 0.5135 0.5101 0.5090 0.5101 0.5112 0.5124 0.5101 0.5090 0.5079 0.5067 0.5067 0.5079 0.5090 0.5112 0.5135 0.5169 0.5191 0.5225 0.5258 0.5303 0.5348 0.5382 0.5427 0.5494 0.5528 0.5551 0.5551 0.5551 0.5551 0.5539 0.5528 0.5517 0.5539 0.5551 0.5573 0.5584 0.5573 0.5562 0.5551 0.5528 0.5494 0.5461 0.5416 0.5371 0.5326 0.5292 0.5247 0.5225 0.5202 0.5180 0.5180 0.5202 0.5213 0.5225 0.5236 0.5213 0.5180 0.5124 0.5056 0.4978 0.4899 0.4876 0.4888 0.4933 0.4966 0.4989 0.5022 0.5056 0.5067 0.5056 0.5045 0.5034 0.4978 0.4933 0.4888 0.4843 0.4854 0.4876 0.4921 0.4944 0.4966 0.4989 0.5000 0.5011 0.5022 0.5034 0.5067 0.5124 0.5191 0.5258 0.5303 0.5303 0.5281 0.5213 0.5112 0.4989 0.4910 0.4820 0.4730 0.4663 0.4629 0.4607 0.4584 0.4573 0.4562 0.4528 0.4461 0.4393 0.4371 0.4393 0.4449 0.4494 0.4539 0.4562 0.4573 0.4562 0.4562 0.4562 0.4551 0.4551 0.4551 0.4528 0.4517 0.4506 0.4483 0.4472 0.4472 0.4472 0.4472 0.4461 0.4461 0.4494 0.4517 0.4528 0.4539 0.4562 0.4584 0.4607 0.4618 0.4562 0.4483 0.4438 0.4416 0.4404 0.4416 0.4449 0.4539 0.4652 0.4708 0.4764 0.4798 0.4820 0.4854 0.4876 0.4899 0.4910 0.4944 0.5000 0.5056 0.5101 0.5146 0.5169 0.5191 0.5191 0.5225 0.5292 0.5371 0.5427 0.5472 0.5494 0.5528 0.5551
0.6596 0.6629 0.6674 0.6697 0.6719 0.6742 0.6798 0.6854 0.6910 0.6966 0.7045 0.7101 0.7157 0.7236 0.7303 0.7348 0.7382 0.7404 0.7438 0.7461 0.7472 0.7483 0.7472 0.7449 0.7416 0.7360 0.7315 0.7270 0.7225 0.7180 0.7135 0.7112 0.7079 0.7045 0.7011 0.6989 0.6955 0.6933 0.6921 0.6921 0.6921 0.6933 0.6921 0.6888 0.6843 0.6809 0.6775 0.6742 0.6685 0.6652 0.6607 0.6562 0.6528 0.6517 0.6506 0.6494 0.6483 0.6494 0.6506 0.6494 0.6472 0.6438 0.6427 0.6438 0.6461 0.6494 0.6562 0.6640 0.6685 0.6685 0.6663 0.6629 0.6607 0.6584 0.6573 0.6584 0.6607 0.6640 0.6663 0.6685 0.6708 0.6719 0.6730 0.6730 0.6742 0.6753 0.6753 0.6742 0.6753 0.6798 0.6798 0.6798 0.6775 0.6753 0.6708 0.6674 0.6652 0.6652 0.6640 0.6640 0.6618 0.6584 0.6562 0.6562 0.6562 0.6562 0.6562 0.6562 0.6562 0.6562 0.6584 0.6607 0.6629 0.6640 0.6618 0.6562 0.6517 0.6506 0.6528 0.6562 0.6618 0.6685 0.6730 0.6775 0.6798 0.6820 0.6854 0.6899 0.6899 0.6899 0.6888 0.6865 0.6843 0.6831 0.6820 0.6820 0.6798 0.6764 0.6730 0.6685 0.6663 0.6629 0.6607 0.6573 0.6551 0.6528 0.6517 0.6494 0.6483 0.6461 0.6438 0.6416 0.6382 0.6337 0.6303 0.6270 0.6225 0.6180 0.6135 0.6079 0.6022 0.6000 0.5989 0.5989 0.5966 0.5944 0.5899 0.5854 0.5820 0.5787 0.5753 0.5730 0.5697 0.5652 0.5629 0.5607 0.5607 0.5607 0.5596 0.5607 0.5607 0.5573 0.5517 0.5461 0.5404 0.5360 0.5303 0.5258 0.5213 0.5191 0.5169 0.5135 0.5101 0.5101 0.5101 0.5112 0.5112 0.5124 0.5146 0.5191 0.5213 0.5225 0.5202 0.5180 0.5146 0.5090 0.5034 0.4978 0.4921 0.4888 0.4876 0.4888 0.4910 0.4921 0.4933 0.4955 0.5011 0.5079 0.5135 0.5169 0.5191 0.5191 0.5146 0.5090 0.5045 0.5034 0.5034 0.5056 0.5067 0.5056 0.5045 0.5034 0.5022 0.5000 0.5034 0.5056 0.5090 0.5101 0.5112 0.5146 0.5157 0.5191 0.5236 0.5270 0.5303 0.5337 0.5382 0.5438 0.5472 0.5494 0.5517 0.5517 0.5506 0.5483 0.5483 0.5494 0.5517 0.5528 0.5551 0.5551 0.5539 0.5517 0.5483 0.5449 0.5427 0.5393 0.5360 0.5326 0.5270 0.5247 0.5213 0.5191 0.5157 0.5146 0.5157 0.5157 0.5157 0.5157 0.5146 0.5101 0.5045 0.4978 0.4921 0.4854 0.4820 0.4820 0.4854 0.4876 0.4899 0.4933 0.4955 0.4978 0.4966 0.4966 0.4966 0.4933 0.4888 0.4831 0.4820 0.4831 0.4865 0.4888 0.4910 0.4933 0.4955 0.4966 0.4978 0.4989 0.5000 0.5022 0.5067 0.5146 0.5213 0.5258 0.5270 0.5247 0.5213 0.5157 0.5067 0.4955 0.4843 0.4742 0.4640 0.4573 0.4539 0.4539 0.4539 0.4528 0.4494 0.4449 0.4416 0.4393 0.4404 0.4438 0.4483 0.4528 0.4551 0.4562 0.4551 0.4551 0.4539 0.4528 0.4528 0.4517 0.4506 0.4483 0.4472 0.4449 0.4438 0.4438 0.4438 0.4427 0.4416 0.4416 0.4416 0.4427 0.4427 0.4438 0.4461 0.4483 0.4483 0.4461 0.4416 0.4360 0.4348 0.4337 0.4360 0.4382 0.4438 0.4539 0.4640 0.4697 0.4742 0.4775 0.4798 0.4831 0.4865 0.4876 0.4910 0.4944 0.5000 0.5034 0.5056 0.5067 0.5090 0.5101 0.5112 0.5146 0.5213 0.5315 0.5371 0.5427 0.5472 0.5506 0.5517
0.6596 0.6629 0.6652 0.6674 0.6685 0.6719 0.6775 0.6843 0.6899 0.6989 0.7067 0.7112 0.7169 0.7225 0.7270 0.7292 0.7315 0.7337 0.7360 0.7393 0.7404 0.7416 0.7416 0.7404 0.7371 0.7337 0.7292 0.7270 0.7225 0.7169 0.7135 0.7112 0.7090 0.7045 0.7000 0.6978 0.6955 0.6944 0.6944 0.6955 0.6966 0.6978 0.6955 0.6921 0.6888 0.6854 0.6831 0.6798 0.6753 0.6708 0.6663 0.6618 0.6596 0.6573 0.6573 0.6551 0.6551 0.6562 0.6551 0.6551 0.6539 0.6528 0.6506 0.6506 0.6539 0.6584 0.6663 0.6719 0.6753 0.6753 0.6719 0.6697 0.6663 0.6629 0.6618 0.6618 0.6640 0.6663 0.6708 0.6764 0.6798 0.6820 0.6831 0.6854 0.6876 0.6888 0.6888 0.6876 0.6876 0.6888 0.6888 0.6854 0.6831 0.6809 0.6775 0.6742 0.6708 0.6708 0.6708 0.6685 0.6663 0.6652 0.6629 0.6629 0.6618 0.6618 0.6629 0.6629 0.6629 0.6640 0.6674 0.6697 0.6708 0.6708 0.6697 0.6652 0.6618 0.6596 0.6596 0.6618 0.6652 0.6697 0.6764 0.6820 0.6854 0.6876 0.6910 0.6933 0.6933 0.6921 0.6899 0.6888 0.6876 0.6865 0.6843 0.6831 0.6809 0.6775 0.6719 0.6697 0.6674 0.6640 0.6596 0.6573 0.6551 0.6517 0.6483 0.6461 0.6427 0.6416 0.6393 0.6371 0.6326 0.6281 0.6236 0.6180 0.6124 0.6090 0.6056 0.6011 0.5989 0.5966 0.5955 0.5933 0.5910 0.5888 0.5843 0.5809 0.5787 0.5775 0.5742 0.5719 0.5674 0.5629 0.5573 0.5562 0.5562 0.5539 0.5528 0.5539 0.5551 0.5539 0.5517 0.5472 0.5427 0.5360 0.5303 0.5247 0.5213 0.5191 0.5169 0.5135 0.5090 0.5079 0.5079 0.5067 0.5067 0.5079 0.5101 0.5124 0.5146 0.5135 0.5124 0.5112 0.5101 0.5067 0.5011 0.4966 0.4899 0.4854 0.4831 0.4843 0.4876 0.4888 0.4899 0.4921 0.4955 0.5011 0.5067 0.5101 0.5135 0.5124 0.5090 0.5022 0.4978 0.4966 0.4966 0.5000 0.5022 0.5022 0.5000 0.4989 0.4955 0.4944 0.4955 0.5011 0.5045 0.5056 0.5056 0.5079 0.5090 0.5112 0.5157 0.5213 0.5258 0.5292 0.5315 0.5360 0.5404 0.5438 0.5438 0.5449 0.5449 0.5438 0.5438 0.5449 0.5472 0.5494 0.5528 0.5517 0.5506 0.5494 0.5472 0.5438 0.5404 0.5360 0.5337 0.5292 0.5258 0.5213 0.5191 0.5157 0.5135 0.5112 0.5101 0.5101 0.5101 0.5112 0.5101 0.5056 0.5011 0.4955 0.4876 0.4809 0.4764 0.4764 0.4787 0.4809 0.4831 0.4854 0.4888 0.4899 0.4899 0.4899 0.4899 0.4876 0.4831 0.4798 0.4787 0.4809 0.4831 0.4843 0.4865 0.4876 0.4899 0.4921 0.4933 0.4944 0.4955 0.4989 0.5056 0.5112 0.5157 0.5191 0.5213 0.5213 0.5202 0.5169 0.5101 0.5000 0.4888 0.4753 0.4629 0.4539 0.4494 0.4494 0.4494 0.4483 0.4461 0.4438 0.4427 0.4404 0.4404 0.4416 0.4449 0.4494 0.4517 0.4539 0.4528 0.4517 0.4506 0.4506 0.4506 0.4494 0.4472 0.4438 0.4427 0.4416 0.4404 0.4404 0.4416 0.4404 0.4393 0.4371 0.4360 0.4348 0.4348 0.4348 0.4360 0.4382 0.4382 0.4371 0.4337 0.4303 0.4281 0.4303 0.4348 0.4416 0.4517 0.4584 0.4640 0.4685 0.4719 0.4753 0.4798 0.4854 0.4865 0.4876 0.4910 0.4944 0.4978 0.4978 0.4966 0.4966 0.4989 0.5011 0.5022 0.5067 0.5146 0.5225 0.5303 0.5371 0.5427 0.5472 0.5494
0.6562 0.6596 0.6618 0.6640 0.6663 0.6697 0.6753 0.6809 0.6888 0.6966 0.7045 0.7101 0.7157 0.7202 0.7236 0.7258 0.7281 0.7303 0.7337 0.7326 0.7326 0.7337 0.7337 0.7326 0.7303 0.7270 0.7236 0.7225 0.7191 0.7146 0.7112 0.7079 0.7034 0.7000 0.6978 0.6955 0.6944 0.6933 0.6933 0.6955 0.6978 0.6989 0.6978 0.6955 0.6910 0.6888 0.6865 0.6843 0.6787 0.6753 0.6719 0.6685 0.6663 0.6652 0.6629 0.6629 0.6629 0.6629 0.6629 0.6618 0.6607 0.6596 0.6596 0.6607 0.6652 0.6697 0.6742 0.6787 0.6809 0.6809 0.6798 0.6753 0.6719 0.6685 0.6652 0.6652 0.6663 0.6685 0.6719 0.6787 0.6854 0.6888 0.6921 0.6955 0.7000 0.7034 0.7034 0.7022 0.7000 0.6978 0.6955 0.6933 0.6899 0.6876 0.6854 0.6809 0.6775 0.6764 0.6753 0.6742 0.6719 0.6708 0.6697 0.6697 0.6685 0.6697 0.6697 0.6685 0.6685 0.6730 0.6764 0.6775 0.6798 0.6798 0.6775 0.6742 0.6708 0.6685 0.6685 0.6674 0.6685 0.6719 0.6787 0.6854 0.6899 0.6921 0.6944 0.6955 0.6944 0.6921 0.6910 0.6910 0.6899 0.6876 0.6854 0.6831 0.6820 0.6787 0.6742 0.6708 0.6674 0.6640 0.6607 0.6584 0.6562 0.6517 0.6483 0.6449 0.6416 0.6393 0.6360 0.6337 0.6292 0.6236 0.6191 0.6146 0.6067 0.6022 0.5989 0.5966 0.5944 0.5910 0.5888 0.5865 0.5854 0.5831 0.5787 0.5753 0.5753 0.5742 0.5719 0.5685 0.5652 0.5607 0.5562 0.5539 0.5528 0.5506 0.5483 0.5483 0.5494 0.5506 0.5506 0.5483 0.5438 0.5382 0.5326 0.5281 0.5236 0.5202 0.5169 0.5124 0.5090 0.5056 0.5045 0.5045 0.5022 0.5011 0.5034 0.5067 0.5067 0.5067 0.5067 0.5079 0.5067 0.5034 0.4989 0.4944 0.4888 0.4831 0.4798 0.4809 0.4820 0.4831 0.4854 0.4888 0.4910 0.4944 0.5000 0.5034 0.5056 0.5045 0.4989 0.4944 0.4910 0.4888 0.4899 0.4921 0.4966 0.4966 0.4966 0.4944 0.4933 0.4910 0.4910 0.4933 0.4978 0.4989 0.4989 0.4989 0.5011 0.5034 0.5079 0.5135 0.5191 0.5225 0.5258 0.5303 0.5360 0.5382 0.5371 0.5371 0.5371 0.5382 0.5404 0.5404 0.5427 0.5449 0.5472 0.5483 0.5494 0.5483 0.5449 0.5416 0.5360 0.5303 0.5270 0.5236 0.5213 0.5191 0.5157 0.5124 0.5101 0.5067 0.5045 0.5034 0.5022 0.5034 0.5034 0.5022 0.4978 0.4921 0.4843 0.4764 0.4708 0.4697 0.4730 0.4787 0.4809 0.4820 0.4831 0.4831 0.4831 0.4820 0.4820 0.4798 0.4787 0.4764 0.4753 0.4775 0.4809 0.4820 0.4831 0.4831 0.4854 0.4876 0.4899 0.4921 0.4933 0.4966 0.5022 0.5079 0.5112 0.5124 0.5146 0.5169 0.5157 0.5124 0.5067 0.5000 0.4921 0.4820 0.4674 0.4562 0.4494 0.4461 0.4461 0.4449 0.4438 0.4416 0.4404 0.4382 0.4360 0.4382 0.4416 0.4449 0.4472 0.4483 0.4483 0.4483 0.4494 0.4483 0.4483 0.4472 0.4449 0.4416 0.4382 0.4382 0.4382 0.4371 0.4371 0.4371 0.4348 0.4326 0.4315 0.4303 0.4292 0.4281 0.4292 0.4303 0.4303 0.4270 0.4247 0.4247 0.4247 0.4292 0.4371 0.4483 0.4573 0.4618 0.4640 0.4663 0.4685 0.4719 0.4775 0.4831 0.4876 0.4899 0.4899 0.4910 0.4910 0.4888 0.4854 0.4865 0.4910 0.4933 0.4966 0.5011 0.5101 0.5191 0.5258 0.5326 0.5382 0.5427 0.5438
0.6528 0.6551 0.6584 0.6618 0.6652 0.6697 0.6753 0.6809 0.6854 0.6933 0.7000 0.7067 0.7146 0.7180 0.7202 0.7225 0.7236 0.7247 0.7270 0.7270 0.7270 0.7270 0.7270 0.7247 0.7225 0.7202 0.7169 0.7157 0.7135 0.7090 0.7056 0.7011 0.6989 0.6978 0.6955 0.6944 0.6933 0.6921 0.6921 0.6933 0.6955 0.6978 0.7000 0.6978 0.6944 0.6921 0.6888 0.6854 0.6820 0.6787 0.6764 0.6730 0.6708 0.6697 0.6685 0.6674 0.6674 0.6708 0.6719 0.6719 0.6719 0.6697 0.6685 0.6697 0.6742 0.6775 0.6809 0.6843 0.6854 0.6854 0.6843 0.6809 0.6775 0.6742 0.6719 0.6708 0.6708 0.6730 0.6775 0.6843 0.6910 0.6966 0.7011 0.7056 0.7090 0.7101 0.7112 0.7090 0.7067 0.7045 0.7022 0.7000 0.6955 0.6921 0.6888 0.6865 0.6831 0.6820 0.6809 0.6798 0.6775 0.6753 0.6753 0.6775 0.6798 0.6798 0.6798 0.6787 0.6787 0.6798 0.6820 0.6843 0.6876 0.6876 0.6843 0.6798 0.6775 0.6764 0.6742 0.6719 0.6730 0.6764 0.6820 0.6888 0.6933 0.6955 0.6966 0.6966 0.6955 0.6933 0.6921 0.6899 0.6876 0.6854 0.6820 0.6798 0.6787 0.6775 0.6753 0.6719 0.6685 0.6640 0.6607 0.6584 0.6562 0.6517 0.6483 0.6472 0.6449 0.6416 0.6382 0.6360 0.6292 0.6236 0.6202 0.6135 0.6045 0.5989 0.5944 0.5910 0.5876 0.5876 0.5854 0.5831 0.5809 0.5787 0.5753 0.5719 0.5708 0.5697 0.5674 0.5640 0.5607 0.5562 0.5528 0.5517 0.5494 0.5472 0.5449 0.5438 0.5438 0.5472 0.5472 0.5472 0.5438 0.5382 0.5348 0.5315 0.5281 0.5213 0.5157 0.5101 0.5056 0.5034 0.5022 0.5011 0.4989 0.4978 0.4989 0.5000 0.5011 0.5022 0.5034 0.5045 0.5034 0.4989 0.4955 0.4899 0.4854 0.4809 0.4787 0.4775 0.4787 0.4787 0.4798 0.4820 0.4854 0.4888 0.4921 0.4966 0.4989 0.4966 0.4933 0.4888 0.4854 0.4843 0.4831 0.4876 0.4899 0.4910 0.4910 0.4910 0.4899 0.4888 0.4876 0.4876 0.4899 0.4910 0.4921 0.4933 0.4955 0.4978 0.5022 0.5067 0.5112 0.5169 0.5213 0.5258 0.5292 0.5315 0.5326 0.5303 0.5303 0.5337 0.5348 0.5360 0.5371 0.5404 0.5449 0.5472 0.5461 0.5438 0.5416 0.5371 0.5303 0.5247 0.5202 0.5191 0.5180 0.5146 0.5101 0.5079 0.5045 0.5022 0.5011 0.4989 0.4966 0.4955 0.4944 0.4921 0.4888 0.4854 0.4787 0.4719 0.4663 0.4652 0.4685 0.4742 0.4787 0.4787 0.4787 0.4775 0.4764 0.4753 0.4730 0.4719 0.4708 0.4708 0.4719 0.4753 0.4775 0.4798 0.4809 0.4809 0.4831 0.4865 0.4888 0.4899 0.4921 0.4933 0.4978 0.5022 0.5056 0.5090 0.5112 0.5112 0.5090 0.5045 0.5011 0.4978 0.4910 0.4831 0.4730 0.4618 0.4506 0.4461 0.4438 0.4427 0.4404 0.4393 0.4360 0.4326 0.4303 0.4326 0.4371 0.4404 0.4416 0.4438 0.4461 0.4461 0.4449 0.4438 0.4427 0.4427 0.4416 0.4393 0.4371 0.4360 0.4337 0.4337 0.4337 0.4326 0.4303 0.4281 0.4270 0.4247 0.4236 0.4225 0.4213 0.4225 0.4213 0.4180 0.4169 0.4169 0.4213 0.4292 0.4371 0.4472 0.4562 0.4596 0.4607 0.4652 0.4674 0.4708 0.4753 0.4820 0.4865 0.4854 0.4831 0.4831 0.4831 0.4798 0.4775 0.4798 0.4843 0.4899 0.4944 0.5000 0.5090 0.5169 0.5236 0.5281 0.5326 0.5360 0.5382
0.6494 0.6517 0.6551 0.6584 0.6629 0.6697 0.6742 0.6798 0.6854 0.6910 0.6955 0.7022 0.7079 0.7135 0.7146 0.7146 0.7157 0.7180 0.7191 0.7191 0.7202 0.7202 0.7202 0.7202 0.7169 0.7135 0.7101 0.7079 0.7056 0.7034 0.7011 0.6978 0.6944 0.6933 0.6921 0.6921 0.6899 0.6888 0.6888 0.6899 0.6921 0.6944 0.6966 0.6978 0.6966 0.6933 0.6921 0.6899 0.6876 0.6876 0.6854 0.6831 0.6798 0.6764 0.6742 0.6730 0.6742 0.6775 0.6787 0.6798 0.6798 0.6787 0.6787 0.6798 0.6820 0.6843 0.6876 0.6888 0.6899 0.6899 0.6876 0.6854 0.6831 0.6798 0.6775 0.6742 0.6753 0.6775 0.6831 0.6899 0.6955 0.7011 0.7056 0.7101 0.7135 0.7146 0.7146 0.7135 0.7101 0.7090 0.7090 0.7067 0.7022 0.6966 0.6933 0.6910 0.6910 0.6910 0.6899 0.6876 0.6865 0.6843 0.6854 0.6888 0.6910 0.6899 0.6888 0.6876 0.6865 0.6888 0.6910 0.6944 0.6955 0.6944 0.6910 0.6865 0.6843 0.6820 0.6787 0.6775 0.6798 0.6843 0.6876 0.6933 0.6978 0.6989 0.7000 0.6989 0.6978 0.6955 0.6921 0.6899 0.6876 0.6831 0.6787 0.6753 0.6742 0.6742 0.6730 0.6697 0.6652 0.6607 0.6584 0.6562 0.6528 0.6483 0.6472 0.6449 0.6427 0.6416 0.6404 0.6371 0.6315 0.6258 0.6202 0.6135 0.6045 0.5978 0.5921 0.5876 0.5854 0.5843 0.5820 0.5787 0.5753 0.5753 0.5719 0.5708 0.5685 0.5663 0.5652 0.5618 0.5573 0.5539 0.5506 0.5494 0.5472 0.5438 0.5427 0.5404 0.5416 0.5416 0.5427 0.5427 0.5393 0.5382 0.5360 0.5337 0.5292 0.5247 0.5180 0.5112 0.5067 0.5022 0.5000 0.4978 0.4966 0.4966 0.4955 0.4966 0.4966 0.4966 0.4978 0.4989 0.4978 0.4944 0.4899 0.4854 0.4820 0.4798 0.4753 0.4742 0.4742 0.4742 0.4753 0.4775 0.4809 0.4831 0.4865 0.4899 0.4910 0.4910 0.4888 0.4854 0.4809 0.4787 0.4798 0.4831 0.4854 0.4854 0.4854 0.4854 0.4831 0.4820 0.4820 0.4831 0.4843 0.4865 0.4876 0.4888 0.4899 0.4944 0.4989 0.5022 0.5079 0.5135 0.5191 0.5225 0.5236 0.5247 0.5247 0.5247 0.5258 0.5281 0.5303 0.5315 0.5326 0.5348 0.5382 0.5416 0.5416 0.5393 0.5371 0.5326 0.5258 0.5202 0.5157 0.5135 0.5112 0.5056 0.5022 0.5000 0.4989 0.4978 0.4966 0.4955 0.4944 0.4921 0.4888 0.4865 0.4831 0.4798 0.4742 0.4685 0.4640 0.4618 0.4618 0.4674 0.4730 0.4742 0.4730 0.4730 0.4730 0.4708 0.4685 0.4663 0.4652 0.4663 0.4697 0.4719 0.4753 0.4775 0.4787 0.4809 0.4831 0.4854 0.4876 0.4899 0.4910 0.4921 0.4955 0.5000 0.5045 0.5090 0.5124 0.5101 0.5045 0.5000 0.4978 0.4944 0.4888 0.4775 0.4674 0.4607 0.4539 0.4472 0.4427 0.4416 0.4393 0.4371 0.4337 0.4303 0.4281 0.4303 0.4348 0.4393 0.4404 0.4416 0.4427 0.4427 0.4404 0.4382 0.4371 0.4371 0.4382 0.4371 0.4360 0.4326 0.4303 0.4292 0.4303 0.4303 0.4292 0.4258 0.4247 0.4225 0.4202 0.4169 0.4146 0.4146 0.4135 0.4112 0.4112 0.4124 0.4180 0.4292 0.4393 0.4483 0.4539 0.4573 0.4607 0.4652 0.4697 0.4719 0.4753 0.4798 0.4809 0.4798 0.4764 0.4742 0.4742 0.4742 0.4730 0.4742 0.4798 0.4865 0.4944 0.5011 0.5101 0.5169 0.5213 0.5247 0.5281 0.5315 0.5337
0.6461 0.6472 0.6528 0.6573 0.6607 0.6652 0.6719 0.6787 0.6843 0.6910 0.6944 0.6989 0.7034 0.7056 0.7067 0.7079 0.7079 0.7090 0.7101 0.7112 0.7112 0.7124 0.7112 0.7101 0.7079 0.7056 0.7034 0.7022 0.7000 0.6978 0.6944 0.6921 0.6899 0.6888 0.6876 0.6854 0.6843 0.6843 0.6854 0.6865 0.6888 0.6921 0.6944 0.6955 0.6966 0.6966 0.6955 0.6955 0.6944 0.6933 0.6933 0.6921 0.6899 0.6876 0.6831 0.6809 0.6809 0.6820 0.6843 0.6854 0.6854 0.6854 0.6854 0.6854 0.6865 0.6888 0.6921 0.6955 0.6966 0.6955 0.6933 0.6921 0.6899 0.6865 0.6820 0.6787 0.6787 0.6809 0.6854 0.6910 0.6966 0.7011 0.7056 0.7112 0.7157 0.7191 0.7191 0.7180 0.7169 0.7157 0.7135 0.7124 0.7079 0.7045 0.7011 0.6989 0.7011 0.7011 0.6989 0.6966 0.6955 0.6944 0.6955 0.6978 0.6989 0.6966 0.6944 0.6921 0.6944 0.6978 0.7000 0.7022 0.7022 0.6989 0.6955 0.6933 0.6899 0.6865 0.6854 0.6854 0.6899 0.6933 0.6955 0.6978 0.7011 0.7045 0.7034 0.7011 0.6989 0.6966 0.6933 0.6888 0.6854 0.6820 0.6775 0.6742 0.6708 0.6697 0.6685 0.6663 0.6618 0.6584 0.6562 0.6528 0.6483 0.6461 0.6427 0.6404 0.6382 0.6371 0.6360 0.6326 0.6281 0.6236 0.6180 0.6112 0.6022 0.5955 0.5899 0.5865 0.5843 0.5820 0.5798 0.5764 0.5730 0.5719 0.5708 0.5697 0.5685 0.5674 0.5640 0.5607 0.5562 0.5528 0.5494 0.5472 0.5449 0.5427 0.5427 0.5404 0.5393 0.5382 0.5382 0.5382 0.5382 0.5371 0.5371 0.5360 0.5326 0.5270 0.5213 0.5146 0.5079 0.5034 0.4989 0.4966 0.4955 0.4944 0.4944 0.4933 0.4933 0.4921 0.4910 0.4921 0.4921 0.4899 0.4865 0.4831 0.4798 0.4753 0.4719 0.4708 0.4708 0.4719 0.4719 0.4730 0.4764 0.4798 0.4831 0.4865 0.4876 0.4865 0.4843 0.4787 0.4730 0.4719 0.4742 0.4775 0.4798 0.4798 0.4798 0.4787 0.4787 0.4775 0.4775 0.4775 0.4798 0.4809 0.4809 0.4831 0.4865 0.4910 0.4955 0.4989 0.5034 0.5101 0.5146 0.5180 0.5191 0.5180 0.5180 0.5191 0.5202 0.5225 0.5236 0.5258 0.5281 0.5292 0.5315 0.5348 0.5382 0.5382 0.5360 0.5292 0.5202 0.5124 0.5090 0.5056 0.5022 0.4978 0.4944 0.4933 0.4921 0.4921 0.4933 0.4921 0.4910 0.4888 0.4865 0.4831 0.4798 0.4753 0.4697 0.4652 0.4596 0.4573 0.4573 0.4618 0.4663 0.4685 0.4685 0.4674 0.4652 0.4640 0.4629 0.4618 0.4629 0.4652 0.4674 0.4697 0.4719 0.4742 0.4775 0.4787 0.4809 0.4831 0.4865 0.4876 0.4899 0.4910 0.4944 0.4989 0.5034 0.5090 0.5135 0.5101 0.5045 0.5000 0.4944 0.4888 0.4787 0.4674 0.4607 0.4562 0.4494 0.4427 0.4404 0.4382 0.4371 0.4348 0.4326 0.4292 0.4270 0.4292 0.4337 0.4360 0.4371 0.4382 0.4382 0.4382 0.4371 0.4360 0.4348 0.4337 0.4326 0.4337 0.4315 0.4281 0.4258 0.4258 0.4270 0.4281 0.4270 0.4258 0.4247 0.4213 0.4169 0.4112 0.4067 0.4056 0.4056 0.4056 0.4090 0.4124 0.4202 0.4315 0.4427 0.4494 0.4528 0.4551 0.4607 0.4663 0.4697 0.4719 0.4742 0.4753 0.4742 0.4730 0.4685 0.4663 0.4663 0.4663 0.4674 0.4719 0.4787 0.4843 0.4921 0.5000 0.5079 0.5146 0.5169 0.5213 0.5247 0.5281 0.5315
0.6393 0.6427 0.6483 0.6528 0.6584 0.6640 0.6685 0.6730 0.6809 0.6876 0.6921 0.6955 0.6978 0.7000 0.7022 0.7022 0.7022 0.7022 0.7011 0.7011 0.7034 0.7034 0.7022 0.7000 0.6978 0.6955 0.6955 0.6966 0.6955 0.6921 0.6876 0.6854 0.6854 0.6843 0.6820 0.6787 0.6787 0.6798 0.6809 0.6820 0.6843 0.6888 0.6899 0.6921 0.6955 0.6978 0.7000 0.7000 0.6989 0.6966 0.6955 0.6944 0.6933 0.6910 0.6888 0.6854 0.6854 0.6865 0.6899 0.6933 0.6944 0.6933 0.6910 0.6910 0.6921 0.6955 0.6989 0.7011 0.7034 0.7022 0.7000 0.6978 0.6955 0.6944 0.6899 0.6854 0.6843 0.6843 0.6854 0.6910 0.6966 0.7011 0.7067 0.7124 0.7180 0.7213 0.7236 0.7258 0.7258 0.7247 0.7225 0.7202 0.7191 0.7169 0.7135 0.7112 0.7101 0.7101 0.7101 0.7079 0.7056 0.7045 0.7045 0.7056 0.7056 0.7045 0.7022 0.7011 0.7022 0.7045 0.7067 0.7079 0.7090 0.7067 0.7045 0.7022 0.6989 0.6978 0.6966 0.6966 0.6989 0.7011 0.7011 0.7045 0.7067 0.7079 0.7067 0.7045 0.7022 0.6989 0.6933 0.6899 0.6865 0.6831 0.6787 0.6753 0.6708 0.6674 0.6652 0.6629 0.6596 0.6562 0.6539 0.6506 0.6472 0.6427 0.6404 0.6382 0.6348 0.6326 0.6303 0.6281 0.6270 0.6225 0.6157 0.6090 0.6011 0.5955 0.5899 0.5865 0.5831 0.5809 0.5775 0.5742 0.5719 0.5708 0.5685 0.5685 0.5685 0.5652 0.5618 0.5562 0.5539 0.5517 0.5494 0.5461 0.5438 0.5427 0.5416 0.5393 0.5371 0.5360 0.5348 0.5360 0.5348 0.5348 0.5360 0.5348 0.5337 0.5292 0.5225 0.5169 0.5101 0.5045 0.5000 0.4966 0.4955 0.4944 0.4921 0.4899 0.4876 0.4865 0.4865 0.4843 0.4854 0.4843 0.4809 0.4764 0.4753 0.4730 0.4697 0.4685 0.4697 0.4697 0.4697 0.4697 0.4719 0.4753 0.4798 0.4831 0.4843 0.4820 0.4742 0.4685 0.4652 0.4652 0.4674 0.4719 0.4742 0.4742 0.4730 0.4730 0.4730 0.4730 0.4730 0.4730 0.4742 0.4753 0.4753 0.4775 0.4809 0.4854 0.4910 0.4955 0.5011 0.5067 0.5112 0.5124 0.5124 0.5112 0.5112 0.5135 0.5146 0.5157 0.5169 0.5191 0.5213 0.5236 0.5270 0.5270 0.5281 0.5303 0.5303 0.5258 0.5169 0.5101 0.5034 0.4989 0.4955 0.4921 0.4888 0.4876 0.4865 0.4854 0.4854 0.4865 0.4865 0.4843 0.4831 0.4809 0.4775 0.4730 0.4652 0.4596 0.4551 0.4528 0.4539 0.4562 0.4607 0.4640 0.4640 0.4607 0.4584 0.4551 0.4573 0.4596 0.4618 0.4640 0.4663 0.4697 0.4719 0.4742 0.4753 0.4764 0.4787 0.4798 0.4809 0.4831 0.4843 0.4888 0.4933 0.4966 0.5011 0.5067 0.5112 0.5101 0.5067 0.5022 0.4966 0.4876 0.4775 0.4674 0.4573 0.4472 0.4416 0.4371 0.4348 0.4326 0.4326 0.4315 0.4281 0.4247 0.4247 0.4270 0.4292 0.4303 0.4315 0.4315 0.4337 0.4348 0.4337 0.4337 0.4326 0.4303 0.4292 0.4281 0.4281 0.4247 0.4225 0.4236 0.4247 0.4247 0.4236 0.4225 0.4225 0.4180 0.4124 0.4067 0.4011 0.3989 0.3989 0.4034 0.4101 0.4169 0.4247 0.4348 0.4427 0.4483 0.4528 0.4551 0.4607 0.4640 0.4652 0.4663 0.4674 0.4685 0.4640 0.4607 0.4584 0.4573 0.4584 0.4618 0.4652 0.4708 0.4753 0.4798 0.4865 0.4955 0.5034 0.5090 0.5146 0.5191 0.5225 0.5270 0.5326
0.6348 0.6382 0.6427 0.6472 0.6539 0.6584 0.6629 0.6674 0.6742 0.6809 0.6865 0.6899 0.6921 0.6944 0.6955 0.6955 0.6944 0.6933 0.6921 0.6933 0.6933 0.6944 0.6944 0.6921 0.6899 0.6888 0.6888 0.6888 0.6876 0.6854 0.6820 0.6809 0.6798 0.6787 0.6775 0.6742 0.6730 0.6719 0.6742 0.6764 0.6787 0.6820 0.6854 0.6888 0.6921 0.6978 0.6989 0.7011 0.7011 0.7011 0.7000 0.6978 0.6955 0.6944 0.6933 0.6921 0.6910 0.6921 0.6955 0.7000 0.7011 0.6989 0.6978 0.6978 0.7000 0.7022 0.7034 0.7056 0.7067 0.7079 0.7067 0.7045 0.7034 0.7011 0.6966 0.6910 0.6865 0.6854 0.6865 0.6910 0.6955 0.7022 0.7090 0.7157 0.7213 0.7258 0.7292 0.7326 0.7348 0.7337 0.7315 0.7303 0.7292 0.7292 0.7270 0.7225 0.7202 0.7180 0.7169 0.7157 0.7146 0.7135 0.7112 0.7101 0.7112 0.7124 0.7124 0.7124 0.7124 0.7135 0.7146 0.7157 0.7169 0.7157 0.7124 0.7101 0.7101 0.7090 0.7079 0.7067 0.7079 0.7079 0.7090 0.7090 0.7101 0.7112 0.7101 0.7079 0.7034 0.6989 0.6955 0.6933 0.6888 0.6854 0.6809 0.6775 0.6708 0.6663 0.6640 0.6607 0.6573 0.6539 0.6517 0.6494 0.6449 0.6416 0.6393 0.6371 0.6337 0.6303 0.6281 0.6258 0.6236 0.6202 0.6146 0.6079 0.6022 0.5966 0.5910 0.5876 0.5843 0.5820 0.5775 0.5742 0.5708 0.5697 0.5685 0.5674 0.5663 0.5629 0.5573 0.5539 0.5528 0.5517 0.5494 0.5461 0.5438 0.5416 0.5393 0.5371 0.5360 0.5348 0.5348 0.5337 0.5315 0.5303 0.5292 0.5292 0.5292 0.5258 0.5213 0.5157 0.5101 0.5045 0.5000 0.4966 0.4955 0.4921 0.4899 0.4854 0.4843 0.4820 0.4809 0.4809 0.4798 0.4798 0.4764 0.4742 0.4719 0.4685 0.4674 0.4652 0.4663 0.4674 0.4674 0.4674 0.4674 0.4708 0.4730 0.4764 0.4764 0.4708 0.4652 0.4607 0.4607 0.4607 0.4652 0.4663 0.4685 0.4697 0.4708 0.4697 0.4685 0.4685 0.4685 0.4697 0.4697 0.4719 0.4719 0.4742 0.4764 0.4798 0.4854 0.4910 0.4966 0.5022 0.5045 0.5045 0.5045 0.5045 0.5067 0.5079 0.5067 0.5079 0.5090 0.5090 0.5124 0.5157 0.5191 0.5202 0.5213 0.5236 0.5236 0.5225 0.5157 0.5079 0.5011 0.4944 0.4899 0.4865 0.4831 0.4809 0.4798 0.4775 0.4775 0.4798 0.4809 0.4820 0.4798 0.4775 0.4730 0.4674 0.4618 0.4562 0.4506 0.4461 0.4461 0.4506 0.4551 0.4573 0.4562 0.4539 0.4517 0.4517 0.4562 0.4596 0.4596 0.4607 0.4640 0.4674 0.4685 0.4697 0.4719 0.4742 0.4753 0.4775 0.4775 0.4787 0.4809 0.4843 0.4899 0.4944 0.4989 0.5034 0.5079 0.5090 0.5067 0.5034 0.4978 0.4888 0.4775 0.4674 0.4551 0.4449 0.4371 0.4303 0.4270 0.4270 0.4281 0.4281 0.4247 0.4213 0.4191 0.4213 0.4236 0.4247 0.4258 0.4281 0.4303 0.4303 0.4292 0.4303 0.4281 0.4258 0.4236 0.4225 0.4213 0.4213 0.4202 0.4202 0.4213 0.4202 0.4191 0.4191 0.4191 0.4157 0.4101 0.4034 0.3978 0.3944 0.3955 0.4000 0.4124 0.4258 0.4326 0.4382 0.4427 0.4472 0.4517 0.4562 0.4596 0.4607 0.4596 0.4584 0.4584 0.4551 0.4528 0.4483 0.4483 0.4506 0.4562 0.4596 0.4629 0.4663 0.4730 0.4775 0.4820 0.4910 0.5011 0.5079 0.5135 0.5191 0.5236 0.5292 0.5337
0.6315 0.6348 0.6382 0.6427 0.6494 0.6539 0.6596 0.6652 0.6719 0.6787 0.6809 0.6843 0.6854 0.6876 0.6888 0.6888 0.6865 0.6843 0.6820 0.6820 0.6820 0.6831 0.6843 0.6843 0.6831 0.6820 0.6809 0.6809 0.6798 0.6775 0.6764 0.6753 0.6730 0.6719 0.6697 0.6685 0.6674 0.6674 0.6674 0.6708 0.6742 0.6775 0.6820 0.6865 0.6899 0.6921 0.6955 0.6978 0.7011 0.7022 0.7022 0.7000 0.6989 0.6966 0.6966 0.6966 0.6978 0.6989 0.7011 0.7045 0.7056 0.7056 0.7067 0.7067 0.7090 0.7112 0.7135 0.7146 0.7146 0.7146 0.7157 0.7124 0.7090 0.7067 0.7011 0.6955 0.6910 0.6888 0.6888 0.6921 0.6966 0.7034 0.7112 0.7191 0.7270 0.7337 0.7382 0.7404 0.7427 0.7427 0.7427 0.7404 0.7382 0.7360 0.7337 0.7315 0.7292 0.7270 0.7270 0.7258 0.7247 0.7213 0.7180 0.7157 0.7169 0.7191 0.7202 0.7202 0.7202 0.7191 0.7191 0.7191 0.7202 0.7202 0.7202 0.7191 0.7202 0.7202 0.7169 0.7135 0.7124 0.7146 0.7146 0.7124 0.7124 0.7135 0.7124 0.7090 0.7034 0.7000 0.6966 0.6933 0.6888 0.6854 0.6820 0.6764 0.6708 0.6663 0.6652 0.6607 0.6573 0.6551 0.6517 0.6472 0.6427 0.6404 0.6382 0.6348 0.6326 0.6303 0.6270 0.6236 0.6225 0.6202 0.6169 0.6112 0.6067 0.6011 0.5955 0.5910 0.5876 0.5843 0.5798 0.5742 0.5719 0.5697 0.5685 0.5663 0.5652 0.5618 0.5573 0.5551 0.5539 0.5517 0.5494 0.5449 0.5427 0.5404 0.5382 0.5371 0.5360 0.5348 0.5337 0.5315 0.5303 0.5281 0.5258 0.5213 0.5202 0.5180 0.5135 0.5101 0.5067 0.5034 0.5000 0.4966 0.4944 0.4910 0.4876 0.4854 0.4820 0.4809 0.4775 0.4753 0.4753 0.4730 0.4697 0.4674 0.4663 0.4652 0.4629 0.4607 0.4618 0.4629 0.4640 0.4640 0.4640 0.4663 0.4685 0.4685 0.4685 0.4640 0.4596 0.4573 0.4573 0.4596 0.4618 0.4629 0.4629 0.4652 0.4663 0.4663 0.4652 0.4652 0.4652 0.4652 0.4663 0.4674 0.4685 0.4697 0.4719 0.4764 0.4820 0.4876 0.4921 0.4966 0.4989 0.5000 0.4989 0.4989 0.5011 0.5011 0.5000 0.5000 0.5011 0.5022 0.5045 0.5079 0.5124 0.5146 0.5157 0.5157 0.5157 0.5146 0.5101 0.5045 0.4966 0.4899 0.4843 0.4809 0.4787 0.4753 0.4730 0.4719 0.4730 0.4753 0.4775 0.4775 0.4753 0.4719 0.4685 0.4640 0.4607 0.4562 0.4506 0.4438 0.4416 0.4438 0.4483 0.4506 0.4506 0.4483 0.4461 0.4494 0.4562 0.4584 0.4584 0.4596 0.4607 0.4629 0.4629 0.4640 0.4663 0.4685 0.4719 0.4742 0.4753 0.4775 0.4798 0.4831 0.4899 0.4944 0.4989 0.5034 0.5079 0.5090 0.5067 0.5034 0.4966 0.4865 0.4742 0.4652 0.4562 0.4461 0.4360 0.4281 0.4236 0.4236 0.4258 0.4247 0.4213 0.4169 0.4146 0.4157 0.4180 0.4202 0.4202 0.4225 0.4258 0.4270 0.4270 0.4258 0.4247 0.4236 0.4213 0.4191 0.4180 0.4180 0.4180 0.4180 0.4169 0.4157 0.4157 0.4157 0.4146 0.4135 0.4067 0.3989 0.3921 0.3888 0.3888 0.3955 0.4090 0.4247 0.4337 0.4382 0.4416 0.4449 0.4506 0.4551 0.4551 0.4551 0.4551 0.4528 0.4506 0.4472 0.4427 0.4416 0.4427 0.4472 0.4528 0.4573 0.4596 0.4640 0.4708 0.4775 0.4843 0.4921 0.4989 0.5067 0.5135 0.5191 0.5258 0.5315 0.5371
0.6281 0.6326 0.6371 0.6427 0.6461 0.6506 0.6573 0.6640 0.6697 0.6742 0.6764 0.6787 0.6798 0.6809 0.6809 0.6809 0.6809 0.6764 0.6730 0.6719 0.6719 0.6730 0.6742 0.6753 0.6753 0.6730 0.6730 0.6730 0.6730 0.6719 0.6708 0.6685 0.6674 0.6652 0.6640 0.6629 0.6629 0.6629 0.6640 0.6674 0.6708 0.6753 0.6787 0.6820 0.6843 0.6876 0.6910 0.6944 0.6978 0.7000 0.7000 0.7000 0.7011 0.7011 0.7022 0.7045 0.7067 0.7067 0.7079 0.7079 0.7090 0.7135 0.7169 0.7191 0.7202 0.7213 0.7225 0.7247 0.7247 0.7236 0.7213 0.7180 0.7135 0.7101 0.7056 0.7000 0.6966 0.6933 0.6921 0.6944 0.7000 0.7079 0.7169 0.7247 0.7326 0.7382 0.7416 0.7472 0.7517 0.7528 0.7517 0.7506 0.7472 0.7449 0.7427 0.7393 0.7382 0.7360 0.7337 0.7315 0.7292 0.7258 0.7225 0.7202 0.7225 0.7258 0.7270 0.7270 0.7247 0.7247 0.7247 0.7247 0.7258 0.7281 0.7281 0.7281 0.7270 0.7270 0.7258 0.7225 0.7191 0.7191 0.7191 0.7180 0.7180 0.7169 0.7157 0.7124 0.7067 0.7022 0.6978 0.6933 0.6876 0.6843 0.6809 0.6764 0.6719 0.6674 0.6640 0.6629 0.6607 0.6573 0.6528 0.6472 0.6427 0.6393 0.6360 0.6337 0.6326 0.6303 0.6281 0.6247 0.6236 0.6236 0.6191 0.6157 0.6112 0.6067 0.6000 0.5944 0.5910 0.5876 0.5820 0.5775 0.5742 0.5730 0.5685 0.5663 0.5652 0.5618 0.5573 0.5551 0.5528 0.5506 0.5472 0.5438 0.5416 0.5393 0.5371 0.5360 0.5348 0.5326 0.5315 0.5292 0.5270 0.5258 0.5225 0.5169 0.5124 0.5079 0.5056 0.5045 0.5022 0.5000 0.4978 0.4966 0.4955 0.4933 0.4888 0.4854 0.4820 0.4787 0.4753 0.4730 0.4708 0.4697 0.4652 0.4629 0.4618 0.4607 0.4584 0.4573 0.4562 0.4573 0.4584 0.4596 0.4607 0.4629 0.4640 0.4629 0.4629 0.4596 0.4551 0.4528 0.4539 0.4562 0.4584 0.4596 0.4596 0.4607 0.4618 0.4618 0.4607 0.4618 0.4618 0.4629 0.4629 0.4629 0.4640 0.4640 0.4663 0.4730 0.4798 0.4865 0.4899 0.4921 0.4944 0.4955 0.4955 0.4955 0.4966 0.4966 0.4955 0.4944 0.4944 0.4966 0.5000 0.5022 0.5045 0.5067 0.5079 0.5067 0.5079 0.5067 0.5022 0.4978 0.4921 0.4843 0.4809 0.4775 0.4753 0.4730 0.4697 0.4697 0.4697 0.4730 0.4753 0.4742 0.4719 0.4685 0.4640 0.4607 0.4584 0.4551 0.4506 0.4438 0.4393 0.4393 0.4416 0.4427 0.4427 0.4416 0.4427 0.4472 0.4539 0.4562 0.4562 0.4573 0.4584 0.4584 0.4584 0.4596 0.4607 0.4652 0.4697 0.4730 0.4753 0.4787 0.4820 0.4865 0.4921 0.4978 0.5022 0.5067 0.5101 0.5101 0.5079 0.5034 0.4966 0.4854 0.4753 0.4663 0.4562 0.4461 0.4382 0.4303 0.4247 0.4225 0.4225 0.4213 0.4180 0.4135 0.4112 0.4124 0.4146 0.4157 0.4169 0.4180 0.4213 0.4225 0.4225 0.4213 0.4225 0.4213 0.4191 0.4180 0.4169 0.4169 0.4169 0.4157 0.4135 0.4124 0.4112 0.4112 0.4101 0.4056 0.4011 0.3955 0.3910 0.3865 0.3854 0.3910 0.4045 0.4180 0.4270 0.4337 0.4404 0.4461 0.4506 0.4517 0.4517 0.4506 0.4483 0.4461 0.4449 0.4404 0.4371 0.4382 0.4416 0.4472 0.4517 0.4562 0.4596 0.4652 0.4719 0.4787 0.4865 0.4933 0.4989 0.5045 0.5112 0.5191 0.5247 0.5303 0.5371
0.6270 0.6315 0.6348 0.6404 0.6449 0.6506 0.6562 0.6607 0.6640 0.6685 0.6708 0.6730 0.6742 0.6764 0.6753 0.6753 0.6719 0.6685 0.6663 0.6652 0.6652 0.6652 0.6663 0.6674 0.6674 0.6663 0.6652 0.6663 0.6663 0.6652 0.6629 0.6629 0.6618 0.6618 0.6607 0.6596 0.6596 0.6584 0.6596 0.6629 0.6674 0.6697 0.6719 0.6742 0.6775 0.6820 0.6865 0.6899 0.6921 0.6933 0.6955 0.6989 0.7022 0.7045 0.7067 0.7090 0.7112 0.7135 0.7146 0.7146 0.7169 0.7225 0.7270 0.7292 0.7292 0.7303 0.7326 0.7348 0.7360 0.7337 0.7303 0.7247 0.7191 0.7124 0.7079 0.7056 0.7022 0.6989 0.6966 0.6978 0.7045 0.7135 0.7225 0.7292 0.7348 0.7382 0.7438 0.7528 0.7596 0.7629 0.7629 0.7607 0.7573 0.7528 0.7506 0.7461 0.7438 0.7416 0.7382 0.7348 0.7315 0.7292 0.7270 0.7281 0.7326 0.7371 0.7404 0.7393 0.7382 0.7382 0.7371 0.7360 0.7360 0.7371 0.7371 0.7360 0.7360 0.7360 0.7326 0.7292 0.7258 0.7247 0.7247 0.7247 0.7225 0.7202 0.7169 0.7124 0.7079 0.7034 0.6989 0.6933 0.6876 0.6831 0.6798 0.6764 0.6742 0.6730 0.6719 0.6697 0.6663 0.6607 0.6573 0.6528 0.6472 0.6404 0.6371 0.6348 0.6337 0.6326 0.6303 0.6270 0.6247 0.6225 0.6213 0.6191 0.6146 0.6101 0.6034 0.5966 0.5933 0.5888 0.5843 0.5809 0.5775 0.5742 0.5708 0.5685 0.5663 0.5618 0.5573 0.5539 0.5517 0.5472 0.5449 0.5427 0.5404 0.5393 0.5382 0.5360 0.5337 0.5315 0.5303 0.5270 0.5247 0.5225 0.5191 0.5146 0.5101 0.5056 0.5011 0.4989 0.4978 0.4966 0.4955 0.4955 0.4978 0.4989 0.4955 0.4910 0.4854 0.4809 0.4775 0.4742 0.4719 0.4685 0.4640 0.4596 0.4584 0.4562 0.4551 0.4517 0.4506 0.4517 0.4539 0.4551 0.4573 0.4584 0.4584 0.4573 0.4562 0.4539 0.4494 0.4483 0.4506 0.4528 0.4551 0.4562 0.4562 0.4562 0.4573 0.4562 0.4562 0.4573 0.4596 0.4596 0.4596 0.4596 0.4618 0.4629 0.4663 0.4719 0.4787 0.4843 0.4876 0.4888 0.4899 0.4910 0.4910 0.4910 0.4921 0.4910 0.4910 0.4899 0.4888 0.4910 0.4933 0.4944 0.4955 0.4966 0.4978 0.4989 0.4989 0.4989 0.4966 0.4921 0.4865 0.4809 0.4775 0.4753 0.4719 0.4697 0.4674 0.4663 0.4674 0.4708 0.4742 0.4730 0.4697 0.4652 0.4607 0.4573 0.4539 0.4517 0.4472 0.4427 0.4393 0.4371 0.4360 0.4371 0.4360 0.4360 0.4382 0.4449 0.4506 0.4528 0.4539 0.4562 0.4562 0.4551 0.4539 0.4551 0.4573 0.4629 0.4697 0.4730 0.4764 0.4798 0.4854 0.4888 0.4944 0.5000 0.5056 0.5101 0.5124 0.5124 0.5090 0.5045 0.4978 0.4888 0.4809 0.4697 0.4596 0.4517 0.4427 0.4348 0.4281 0.4236 0.4213 0.4180 0.4146 0.4124 0.4090 0.4079 0.4090 0.4124 0.4146 0.4157 0.4169 0.4191 0.4191 0.4191 0.4191 0.4191 0.4169 0.4157 0.4157 0.4157 0.4157 0.4146 0.4112 0.4090 0.4079 0.4067 0.4045 0.4022 0.4000 0.3966 0.3921 0.3865 0.3854 0.3899 0.4000 0.4101 0.4191 0.4258 0.4348 0.4438 0.4472 0.4483 0.4472 0.4438 0.4416 0.4416 0.4393 0.4348 0.4348 0.4393 0.4438 0.4483 0.4539 0.4584 0.4640 0.4708 0.4753 0.4787 0.4865 0.4933 0.4989 0.5022 0.5079 0.5135 0.5202 0.5270 0.5337
0.6270 0.6315 0.6348 0.6382 0.6449 0.6494 0.6528 0.6551 0.6573 0.6584 0.6629 0.6663 0.6685 0.6697 0.6697 0.6663 0.6640 0.6618 0.6607 0.6596 0.6584 0.6596 0.6596 0.6607 0.6618 0.6618 0.6596 0.6584 0.6573 0.6562 0.6562 0.6573 0.6573 0.6562 0.6562 0.6551 0.6539 0.6528 0.6551 0.6596 0.6618 0.6640 0.6663 0.6708 0.6742 0.6764 0.6798 0.6831 0.6865 0.6888 0.6910 0.6944 0.7000 0.7045 0.7090 0.7135 0.7169 0.7191 0.7225 0.7247 0.7281 0.7326 0.7360 0.7371 0.7382 0.7416 0.7461 0.7506 0.7506 0.7472 0.7404 0.7326 0.7247 0.7157 0.7124 0.7101 0.7079 0.7045 0.7022 0.7022 0.7079 0.7157 0.7236 0.7281 0.7337 0.7382 0.7472 0.7596 0.7708 0.7775 0.7787 0.7787 0.7742 0.7685 0.7618 0.7573 0.7528 0.7506 0.7483 0.7461 0.7449 0.7438 0.7438 0.7461 0.7506 0.7562 0.7618 0.7629 0.7618 0.7584 0.7528 0.7494 0.7494 0.7494 0.7506 0.7494 0.7494 0.7472 0.7427 0.7371 0.7360 0.7337 0.7315 0.7258 0.7225 0.7191 0.7157 0.7112 0.7067 0.7022 0.6978 0.6933 0.6876 0.6843 0.6820 0.6798 0.6798 0.6798 0.6809 0.6775 0.6719 0.6674 0.6629 0.6596 0.6539 0.6483 0.6427 0.6393 0.6382 0.6348 0.6315 0.6292 0.6247 0.6225 0.6202 0.6180 0.6146 0.6112 0.6067 0.6011 0.5944 0.5888 0.5843 0.5809 0.5787 0.5764 0.5742 0.5708 0.5663 0.5618 0.5573 0.5528 0.5494 0.5472 0.5438 0.5427 0.5404 0.5393 0.5382 0.5371 0.5348 0.5326 0.5292 0.5258 0.5225 0.5202 0.5180 0.5146 0.5101 0.5056 0.5011 0.4966 0.4955 0.4933 0.4921 0.4933 0.4989 0.5034 0.5034 0.4989 0.4921 0.4854 0.4798 0.4764 0.4730 0.4674 0.4607 0.4562 0.4528 0.4517 0.4506 0.4483 0.4472 0.4472 0.4494 0.4517 0.4528 0.4528 0.4528 0.4528 0.4517 0.4494 0.4472 0.4461 0.4472 0.4494 0.4517 0.4528 0.4528 0.4528 0.4506 0.4506 0.4506 0.4528 0.4528 0.4539 0.4539 0.4562 0.4584 0.4640 0.4685 0.4742 0.4764 0.4798 0.4820 0.4831 0.4854 0.4865 0.4865 0.4865 0.4876 0.4888 0.4876 0.4865 0.4854 0.4843 0.4843 0.4854 0.4854 0.4876 0.4888 0.4888 0.4899 0.4899 0.4876 0.4854 0.4809 0.4764 0.4742 0.4719 0.4674 0.4663 0.4640 0.4640 0.4652 0.4685 0.4697 0.4685 0.4674 0.4629 0.4584 0.4528 0.4483 0.4472 0.4449 0.4416 0.4382 0.4348 0.4326 0.4303 0.4303 0.4315 0.4360 0.4416 0.4461 0.4483 0.4506 0.4528 0.4517 0.4506 0.4506 0.4528 0.4562 0.4629 0.4697 0.4753 0.4798 0.4831 0.4865 0.4910 0.4955 0.5011 0.5067 0.5112 0.5124 0.5124 0.5090 0.5034 0.4978 0.4921 0.4820 0.4730 0.4652 0.4573 0.4483 0.4382 0.4303 0.4247 0.4202 0.4157 0.4135 0.4090 0.4056 0.4034 0.4056 0.4079 0.4101 0.4112 0.4135 0.4146 0.4157 0.4157 0.4169 0.4157 0.4146 0.4146 0.4157 0.4157 0.4146 0.4135 0.4101 0.4067 0.4056 0.4045 0.4034 0.4011 0.3978 0.3944 0.3899 0.3843 0.3809 0.3854 0.3933 0.4034 0.4101 0.4169 0.4281 0.4382 0.4404 0.4371 0.4348 0.4337 0.4337 0.4326 0.4303 0.4281 0.4326 0.4393 0.4461 0.4506 0.4562 0.4618 0.4663 0.4719 0.4753 0.4798 0.4854 0.4921 0.4966 0.5000 0.5045 0.5090 0.5135 0.5202 0.5281
0.6292 0.6337 0.6360 0.6382 0.6427 0.6461 0.6494 0.6506 0.6517 0.6528 0.6562 0.6607 0.6618 0.6629 0.6618 0.6607 0.6596 0.6573 0.6562 0.6551 0.6539 0.6539 0.6539 0.6528 0.6539 0.6551 0.6528 0.6506 0.6494 0.6506 0.6506 0.6494 0.6506 0.6517 0.6517 0.6494 0.6472 0.6483 0.6506 0.6551 0.6573 0.6596 0.6640 0.6685 0.6708 0.6719 0.6730 0.6753 0.6787 0.6831 0.6865 0.6910 0.6978 0.7056 0.7124 0.7169 0.7202 0.7225 0.7281 0.7315 0.7337 0.7371 0.7427 0.7483 0.7506 0.7562 0.7607 0.7618 0.7618 0.7573 0.7517 0.7427 0.7326 0.7247 0.7180 0.7157 0.7135 0.7101 0.7079 0.7067 0.7112 0.7202 0.7270 0.7315 0.7371 0.7449 0.7551 0.7663 0.7787 0.7899 0.7944 0.7933 0.7933 0.7865 0.7787 0.7742 0.7708 0.7663 0.7652 0.7652 0.7640 0.7618 0.7607 0.7618 0.7663 0.7719 0.7798 0.7843 0.7820 0.7787 0.7730 0.7708 0.7697 0.7697 0.7697 0.7708 0.7674 0.7640 0.7573 0.7506 0.7438 0.7404 0.7348 0.7281 0.7225 0.7180 0.7146 0.7090 0.7056 0.7011 0.6989 0.6955 0.6910 0.6899 0.6888 0.6876 0.6854 0.6854 0.6865 0.6843 0.6798 0.6742 0.6697 0.6685 0.6663 0.6596 0.6551 0.6517 0.6483 0.6449 0.6427 0.6393 0.6337 0.6258 0.6202 0.6157 0.6124 0.6101 0.6079 0.6034 0.5955 0.5888 0.5843 0.5809 0.5787 0.5775 0.5764 0.5719 0.5674 0.5618 0.5573 0.5528 0.5494 0.5472 0.5461 0.5438 0.5416 0.5393 0.5382 0.5371 0.5348 0.5315 0.5270 0.5247 0.5213 0.5180 0.5157 0.5135 0.5124 0.5079 0.5034 0.5000 0.4955 0.4921 0.4899 0.4899 0.4933 0.4989 0.5022 0.5022 0.4978 0.4910 0.4843 0.4787 0.4742 0.4674 0.4607 0.4528 0.4483 0.4461 0.4461 0.4449 0.4427 0.4427 0.4449 0.4483 0.4483 0.4483 0.4483 0.4483 0.4472 0.4449 0.4438 0.4438 0.4438 0.4461 0.4483 0.4494 0.4494 0.4483 0.4472 0.4472 0.4472 0.4483 0.4483 0.4494 0.4506 0.4528 0.4573 0.4629 0.4685 0.4719 0.4730 0.4753 0.4787 0.4798 0.4798 0.4809 0.4809 0.4831 0.4843 0.4854 0.4843 0.4820 0.4798 0.4764 0.4753 0.4730 0.4730 0.4764 0.4787 0.4775 0.4775 0.4787 0.4787 0.4764 0.4742 0.4719 0.4685 0.4652 0.4640 0.4629 0.4618 0.4618 0.4640 0.4663 0.4663 0.4652 0.4618 0.4584 0.4539 0.4494 0.4449 0.4427 0.4416 0.4404 0.4371 0.4337 0.4303 0.4270 0.4258 0.4270 0.4315 0.4371 0.4416 0.4427 0.4449 0.4449 0.4449 0.4461 0.4472 0.4494 0.4551 0.4629 0.4708 0.4787 0.4843 0.4876 0.4921 0.4955 0.4978 0.5022 0.5079 0.5101 0.5124 0.5124 0.5079 0.5022 0.4955 0.4899 0.4809 0.4708 0.4640 0.4584 0.4517 0.4416 0.4315 0.4236 0.4169 0.4112 0.4079 0.4045 0.4011 0.4000 0.4011 0.4022 0.4045 0.4056 0.4079 0.4112 0.4112 0.4135 0.4135 0.4135 0.4135 0.4146 0.4157 0.4146 0.4124 0.4101 0.4079 0.4056 0.4056 0.4056 0.4034 0.3966 0.3921 0.3876 0.3843 0.3764 0.3775 0.3820 0.3888 0.3955 0.4034 0.4112 0.4225 0.4303 0.4303 0.4258 0.4213 0.4213 0.4225 0.4225 0.4225 0.4270 0.4326 0.4404 0.4449 0.4506 0.4562 0.4618 0.4663 0.4719 0.4764 0.4820 0.4865 0.4921 0.4955 0.5000 0.5045 0.5079 0.5112 0.5146 0.5202
0.6270 0.6315 0.6337 0.6371 0.6404 0.6427 0.6438 0.6449 0.6472 0.6494 0.6528 0.6551 0.6562 0.6573 0.6573 0.6573 0.6562 0.6539 0.6528 0.6517 0.6506 0.6494 0.6472 0.6472 0.6472 0.6461 0.6461 0.6449 0.6449 0.6438 0.6427 0.6427 0.6438 0.6449 0.6449 0.6427 0.6427 0.6438 0.6461 0.6483 0.6506 0.6528 0.6562 0.6607 0.6652 0.6674 0.6685 0.6719 0.6753 0.6787 0.6831 0.6888 0.6978 0.7067 0.7135 0.7169 0.7213 0.7270 0.7337 0.7371 0.7393 0.7449 0.7539 0.7618 0.7674 0.7719 0.7730 0.7719 0.7674 0.7618 0.7573 0.7506 0.7427 0.7348 0.7281 0.7236 0.7191 0.7169 0.7135 0.7112 0.7135 0.7213 0.7303 0.7382 0.7461 0.7539 0.7629 0.7719 0.7820 0.7888 0.7944 0.7966 0.7989 0.7966 0.7933 0.7910 0.7888 0.7876 0.7876 0.7865 0.7843 0.7820 0.7787 0.7787 0.7820 0.7899 0.7978 0.8022 0.8011 0.8000 0.7955 0.7933 0.7944 0.7933 0.7910 0.7888 0.7854 0.7809 0.7742 0.7640 0.7528 0.7449 0.7382 0.7303 0.7236 0.7202 0.7146 0.7101 0.7067 0.7034 0.7022 0.7000 0.6966 0.6944 0.6933 0.6910 0.6899 0.6899 0.6910 0.6888 0.6865 0.6831 0.6787 0.6764 0.6742 0.6708 0.6685 0.6674 0.6674 0.6674 0.6652 0.6584 0.6472 0.6348 0.6236 0.6157 0.6101 0.6079 0.6067 0.6056 0.5989 0.5933 0.5876 0.5831 0.5787 0.5753 0.5730 0.5685 0.5652 0.5618 0.5573 0.5528 0.5494 0.5494 0.5483 0.5449 0.5427 0.5404 0.5382 0.5360 0.5348 0.5315 0.5281 0.5236 0.5202 0.5169 0.5135 0.5135 0.5124 0.5101 0.5067 0.5011 0.4966 0.4933 0.4899 0.4876 0.4888 0.4910 0.4955 0.4989 0.4966 0.4921 0.4888 0.4843 0.4798 0.4742 0.4663 0.4596 0.4517 0.4472 0.4438 0.4416 0.4382 0.4371 0.4393 0.4427 0.4438 0.4438 0.4449 0.4449 0.4427 0.4404 0.4393 0.4393 0.4404 0.4438 0.4449 0.4449 0.4449 0.4449 0.4449 0.4449 0.4461 0.4461 0.4461 0.4472 0.4494 0.4528 0.4551 0.4607 0.4652 0.4697 0.4708 0.4730 0.4742 0.4753 0.4753 0.4764 0.4787 0.4798 0.4809 0.4820 0.4798 0.4753 0.4730 0.4708 0.4674 0.4640 0.4640 0.4652 0.4674 0.4685 0.4685 0.4697 0.4697 0.4685 0.4663 0.4640 0.4629 0.4607 0.4584 0.4584 0.4596 0.4596 0.4618 0.4629 0.4618 0.4607 0.4573 0.4551 0.4517 0.4483 0.4427 0.4393 0.4371 0.4371 0.4371 0.4337 0.4292 0.4258 0.4236 0.4247 0.4270 0.4326 0.4371 0.4393 0.4393 0.4393 0.4393 0.4404 0.4438 0.4483 0.4551 0.4640 0.4719 0.4787 0.4854 0.4910 0.4955 0.4978 0.5011 0.5034 0.5056 0.5090 0.5112 0.5090 0.5034 0.4978 0.4921 0.4831 0.4730 0.4652 0.4607 0.4551 0.4494 0.4416 0.4315 0.4225 0.4124 0.4067 0.4022 0.3989 0.3955 0.3955 0.3966 0.3978 0.3989 0.4011 0.4045 0.4067 0.4067 0.4090 0.4112 0.4112 0.4124 0.4135 0.4135 0.4124 0.4101 0.4079 0.4067 0.4045 0.4034 0.4022 0.3989 0.3933 0.3876 0.3831 0.3775 0.3742 0.3753 0.3798 0.3865 0.3933 0.4000 0.4090 0.4180 0.4225 0.4202 0.4135 0.4101 0.4112 0.4135 0.4169 0.4225 0.4281 0.4348 0.4404 0.4449 0.4506 0.4573 0.4618 0.4663 0.4719 0.4775 0.4820 0.4865 0.4910 0.4955 0.4989 0.5045 0.5067 0.5090 0.5112 0.5157
0.6225 0.6270 0.6303 0.6337 0.6360 0.6360 0.6371 0.6382 0.6404 0.6438 0.6472 0.6494 0.6506 0.6506 0.6517 0.6528 0.6528 0.6528 0.6506 0.6483 0.6472 0.6449 0.6438 0.6427 0.6404 0.6382 0.6371 0.6382 0.6382 0.6382 0.6360 0.6360 0.6360 0.6371 0.6371 0.6371 0.6371 0.6382 0.6393 0.6427 0.6449 0.6472 0.6506 0.6551 0.6596 0.6629 0.6663 0.6697 0.6753 0.6798 0.6820 0.6876 0.6955 0.7056 0.7112 0.7180 0.7258 0.7315 0.7382 0.7449 0.7528 0.7596 0.7708 0.7798 0.7876 0.7888 0.7865 0.7820 0.7742 0.7674 0.7629 0.7584 0.7528 0.7472 0.7416 0.7371 0.7337 0.7292 0.7225 0.7169 0.7146 0.7191 0.7270 0.7371 0.7461 0.7528 0.7596 0.7652 0.7719 0.7787 0.7843 0.7888 0.7944 0.7955 0.7966 0.7966 0.7989 0.8000 0.8011 0.8034 0.8045 0.8034 0.8000 0.8000 0.8056 0.8112 0.8157 0.8202 0.8202 0.8236 0.8213 0.8213 0.8213 0.8180 0.8135 0.8079 0.8022 0.7966 0.7888 0.7787 0.7674 0.7551 0.7461 0.7360 0.7281 0.7213 0.7169 0.7124 0.7090 0.7079 0.7067 0.7034 0.7000 0.6955 0.6921 0.6910 0.6910 0.6921 0.6933 0.6921 0.6899 0.6876 0.6854 0.6831 0.6787 0.6764 0.6775 0.6775 0.6809 0.6820 0.6798 0.6742 0.6607 0.6472 0.6326 0.6202 0.6135 0.6090 0.6056 0.6034 0.6011 0.5955 0.5899 0.5843 0.5787 0.5730 0.5685 0.5640 0.5618 0.5607 0.5573 0.5539 0.5517 0.5506 0.5472 0.5449 0.5438 0.5416 0.5382 0.5360 0.5337 0.5303 0.5270 0.5225 0.5180 0.5157 0.5135 0.5112 0.5101 0.5090 0.5045 0.5000 0.4955 0.4921 0.4888 0.4854 0.4843 0.4865 0.4888 0.4910 0.4910 0.4899 0.4876 0.4843 0.4809 0.4764 0.4719 0.4663 0.4584 0.4506 0.4449 0.4382 0.4348 0.4337 0.4360 0.4382 0.4404 0.4416 0.4404 0.4393 0.4382 0.4371 0.4371 0.4371 0.4382 0.4393 0.4416 0.4427 0.4427 0.4416 0.4427 0.4427 0.4438 0.4438 0.4449 0.4461 0.4506 0.4528 0.4562 0.4596 0.4640 0.4674 0.4697 0.4697 0.4697 0.4697 0.4697 0.4730 0.4753 0.4775 0.4775 0.4775 0.4764 0.4730 0.4697 0.4663 0.4618 0.4584 0.4573 0.4573 0.4584 0.4596 0.4596 0.4607 0.4629 0.4629 0.4618 0.4596 0.4573 0.4551 0.4551 0.4562 0.4562 0.4573 0.4584 0.4584 0.4584 0.4562 0.4551 0.4528 0.4494 0.4461 0.4404 0.4360 0.4337 0.4337 0.4348 0.4337 0.4315 0.4270 0.4236 0.4236 0.4270 0.4303 0.4326 0.4348 0.4360 0.4371 0.4382 0.4404 0.4449 0.4517 0.4584 0.4640 0.4708 0.4787 0.4865 0.4921 0.4978 0.5011 0.5022 0.5034 0.5045 0.5067 0.5067 0.5034 0.4989 0.4955 0.4899 0.4809 0.4730 0.4652 0.4573 0.4506 0.4449 0.4360 0.4292 0.4202 0.4112 0.4045 0.4000 0.3955 0.3921 0.3921 0.3933 0.3933 0.3944 0.3978 0.3989 0.4000 0.4022 0.4045 0.4067 0.4090 0.4090 0.4090 0.4090 0.4090 0.4067 0.4056 0.4045 0.4022 0.4000 0.3989 0.3955 0.3899 0.3843 0.3775 0.3742 0.3719 0.3730 0.3775 0.3831 0.3899 0.3978 0.4056 0.4112 0.4124 0.4090 0.4056 0.4034 0.4045 0.4101 0.4146 0.4213 0.4258 0.4315 0.4382 0.4449 0.4506 0.4573 0.4618 0.4663 0.4730 0.4787 0.4809 0.4843 0.4876 0.4921 0.4978 0.5011 0.5022 0.5045 0.5079 0.5124
0.6202 0.6247 0.6270 0.6303 0.6315 0.6315 0.6315 0.6326 0.6348 0.6371 0.6404 0.6427 0.6438 0.6438 0.6449 0.6449 0.6461 0.6472 0.6472 0.6461 0.6449 0.6427 0.6404 0.6382 0.6360 0.6315 0.6303 0.6303 0.6303 0.6303 0.6303 0.6292 0.6303 0.6303 0.6303 0.6303 0.6315 0.6337 0.6360 0.6382 0.6416 0.6449 0.6494 0.6551 0.6584 0.6618 0.6663 0.6742 0.6798 0.6843 0.6865 0.6899 0.6955 0.7034 0.7124 0.7202 0.7303 0.7416 0.7483 0.7551 0.7640 0.7730 0.7820 0.7910 0.7978 0.8000 0.7955 0.7899 0.7831 0.7753 0.7719 0.7685 0.7674 0.7629 0.7584 0.7551 0.7506 0.7449 0.7360 0.7258 0.7202 0.7191 0.7225 0.7292 0.7371 0.7461 0.7517 0.7573 0.7618 0.7674 0.7730 0.7787 0.7843 0.7876 0.7910 0.7944 0.7966 0.7978 0.8011 0.8056 0.8101 0.8146 0.8169 0.8191 0.8270 0.8348 0.8427 0.8427 0.8427 0.8461 0.8483 0.8472 0.8427 0.8371 0.8315 0.8247 0.8191 0.8124 0.8034 0.7910 0.7787 0.7663 0.7539 0.7427 0.7326 0.7236 0.7180 0.7135 0.7124 0.7124 0.7112 0.7079 0.7022 0.6966 0.6933 0.6921 0.6921 0.6944 0.6978 0.6966 0.6944 0.6921 0.6899 0.6865 0.6843 0.6820 0.6831 0.6854 0.6876 0.6854 0.6843 0.6820 0.6742 0.6629 0.6461 0.6326 0.6180 0.6090 0.6045 0.6022 0.6011 0.5966 0.5921 0.5876 0.5820 0.5742 0.5685 0.5640 0.5629 0.5618 0.5596 0.5562 0.5528 0.5494 0.5449 0.5427 0.5438 0.5404 0.5371 0.5348 0.5326 0.5303 0.5247 0.5191 0.5169 0.5157 0.5135 0.5101 0.5067 0.5045 0.5022 0.4978 0.4944 0.4899 0.4876 0.4854 0.4820 0.4809 0.4820 0.4820 0.4831 0.4843 0.4843 0.4831 0.4798 0.4753 0.4708 0.4663 0.4596 0.4517 0.4438 0.4382 0.4348 0.4326 0.4337 0.4348 0.4360 0.4371 0.4360 0.4348 0.4348 0.4326 0.4326 0.4337 0.4348 0.4360 0.4382 0.4393 0.4382 0.4371 0.4382 0.4393 0.4393 0.4404 0.4416 0.4449 0.4472 0.4506 0.4551 0.4596 0.4629 0.4674 0.4685 0.4674 0.4652 0.4640 0.4652 0.4674 0.4708 0.4730 0.4742 0.4742 0.4719 0.4685 0.4640 0.4596 0.4562 0.4539 0.4517 0.4517 0.4517 0.4506 0.4517 0.4551 0.4596 0.4607 0.4596 0.4562 0.4539 0.4528 0.4539 0.4539 0.4528 0.4539 0.4551 0.4562 0.4562 0.4551 0.4528 0.4506 0.4472 0.4438 0.4393 0.4348 0.4315 0.4303 0.4326 0.4326 0.4315 0.4270 0.4236 0.4236 0.4247 0.4281 0.4303 0.4315 0.4337 0.4348 0.4371 0.4416 0.4461 0.4528 0.4596 0.4663 0.4719 0.4798 0.4888 0.4944 0.4989 0.5022 0.5034 0.5022 0.5022 0.5045 0.5034 0.4989 0.4944 0.4899 0.4854 0.4809 0.4764 0.4697 0.4607 0.4517 0.4438 0.4360 0.4292 0.4213 0.4135 0.4079 0.4056 0.3989 0.3933 0.3910 0.3899 0.3899 0.3899 0.3910 0.3933 0.3955 0.3978 0.4000 0.4034 0.4056 0.4056 0.4056 0.4045 0.4045 0.4045 0.4034 0.4011 0.4000 0.3989 0.3966 0.3921 0.3876 0.3820 0.3764 0.3708 0.3685 0.3708 0.3753 0.3820 0.3899 0.3978 0.4045 0.4067 0.4056 0.4000 0.3989 0.4000 0.4034 0.4090 0.4146 0.4213 0.4258 0.4315 0.4371 0.4438 0.4506 0.4573 0.4629 0.4685 0.4753 0.4787 0.4809 0.4820 0.4843 0.4876 0.4921 0.4966 0.4989 0.5011 0.5067 0.5135
0.6180 0.6225 0.6236 0.6247 0.6247 0.6236 0.6247 0.6281 0.6292 0.6303 0.6326 0.6348 0.6371 0.6371 0.6371 0.6371 0.6393 0.6427 0.6449 0.6438 0.6416 0.6382 0.6360 0.6326 0.6303 0.6258 0.6236 0.6225 0.6236 0.6236 0.6225 0.6225 0.6225 0.6236 0.6236 0.6236 0.6270 0.6292 0.6315 0.6360 0.6393 0.6438 0.6506 0.6562 0.6618 0.6685 0.6719 0.6787 0.6876 0.6933 0.6966 0.6978 0.7011 0.7067 0.7169 0.7292 0.7438 0.7551 0.7652 0.7730 0.7809 0.7865 0.7921 0.8000 0.8056 0.8067 0.8011 0.7966 0.7888 0.7843 0.7809 0.7820 0.7809 0.7764 0.7730 0.7685 0.7618 0.7551 0.7461 0.7360 0.7292 0.7258 0.7258 0.7258 0.7326 0.7393 0.7438 0.7483 0.7551 0.7618 0.7663 0.7719 0.7742 0.7764 0.7809 0.7854 0.7899 0.7921 0.7978 0.8045 0.8135 0.8213 0.8281 0.8348 0.8404 0.8483 0.8528 0.8562 0.8562 0.8573 0.8596 0.8584 0.8551 0.8506 0.8449 0.8382 0.8315 0.8258 0.8146 0.8022 0.7910 0.7809 0.7685 0.7551 0.7438 0.7326 0.7247 0.7191 0.7169 0.7146 0.7135 0.7101 0.7045 0.7000 0.6966 0.6978 0.6989 0.7000 0.7022 0.7034 0.7034 0.7011 0.6978 0.6966 0.6955 0.6966 0.6989 0.7034 0.7011 0.6989 0.6933 0.6888 0.6854 0.6742 0.6596 0.6382 0.6213 0.6101 0.6045 0.6022 0.6022 0.6000 0.5978 0.5933 0.5865 0.5798 0.5730 0.5697 0.5652 0.5629 0.5618 0.5584 0.5551 0.5506 0.5461 0.5438 0.5404 0.5371 0.5360 0.5337 0.5326 0.5303 0.5270 0.5225 0.5191 0.5180 0.5157 0.5101 0.5056 0.5022 0.4989 0.4955 0.4921 0.4899 0.4888 0.4854 0.4798 0.4753 0.4730 0.4719 0.4730 0.4775 0.4809 0.4809 0.4764 0.4719 0.4685 0.4640 0.4596 0.4517 0.4449 0.4382 0.4337 0.4326 0.4315 0.4303 0.4303 0.4326 0.4326 0.4315 0.4315 0.4303 0.4303 0.4315 0.4326 0.4348 0.4360 0.4360 0.4348 0.4348 0.4348 0.4348 0.4348 0.4360 0.4382 0.4404 0.4449 0.4483 0.4528 0.4584 0.4629 0.4640 0.4652 0.4629 0.4618 0.4607 0.4607 0.4629 0.4652 0.4674 0.4685 0.4685 0.4663 0.4618 0.4562 0.4517 0.4494 0.4472 0.4449 0.4449 0.4438 0.4438 0.4461 0.4506 0.4551 0.4573 0.4562 0.4539 0.4506 0.4494 0.4494 0.4483 0.4494 0.4506 0.4517 0.4528 0.4539 0.4528 0.4506 0.4494 0.4461 0.4416 0.4360 0.4315 0.4281 0.4281 0.4292 0.4303 0.4292 0.4258 0.4225 0.4213 0.4236 0.4258 0.4281 0.4303 0.4326 0.4348 0.4393 0.4438 0.4483 0.4539 0.4607 0.4674 0.4742 0.4820 0.4888 0.4933 0.4978 0.5011 0.5011 0.5000 0.5000 0.5000 0.4978 0.4933 0.4899 0.4854 0.4820 0.4809 0.4787 0.4742 0.4663 0.4562 0.4483 0.4404 0.4337 0.4270 0.4191 0.4146 0.4124 0.4056 0.3978 0.3933 0.3888 0.3843 0.3831 0.3854 0.3888 0.3910 0.3944 0.3978 0.4000 0.4011 0.4022 0.4022 0.4022 0.4022 0.4011 0.4000 0.3989 0.3978 0.3955 0.3921 0.3876 0.3843 0.3798 0.3730 0.3674 0.3663 0.3685 0.3753 0.3843 0.3933 0.4000 0.4045 0.4034 0.4000 0.3966 0.3944 0.3978 0.4022 0.4079 0.4135 0.4202 0.4270 0.4315 0.4371 0.4438 0.4506 0.4551 0.4607 0.4663 0.4719 0.4753 0.4787 0.4798 0.4820 0.4843 0.4876 0.4910 0.4955 0.5000 0.5056 0.5112
0.6157 0.6180 0.6191 0.6191 0.6180 0.6180 0.6180 0.6202 0.6236 0.6258 0.6270 0.6292 0.6292 0.6292 0.6303 0.6315 0.6326 0.6360 0.6371 0.6393 0.6382 0.6360 0.6326 0.6303 0.6258 0.6202 0.6157 0.6157 0.6169 0.6157 0.6146 0.6146 0.6157 0.6169 0.6180 0.6191 0.6213 0.6247 0.6292 0.6326 0.6382 0.6427 0.6483 0.6562 0.6640 0.6708 0.6753 0.6820 0.6921 0.7011 0.7067 0.7101 0.7124 0.7169 0.7292 0.7404 0.7506 0.7640 0.7775 0.7876 0.7933 0.8000 0.8056 0.8124 0.8180 0.8157 0.8112 0.8045 0.8000 0.7944 0.7921 0.7899 0.7888 0.7831 0.7775 0.7697 0.7629 0.7562 0.7494 0.7393 0.7360 0.7348 0.7337 0.7337 0.7348 0.7393 0.7461 0.7506 0.7562 0.7629 0.7652 0.7674 0.7697 0.7719 0.7742 0.7798 0.7843 0.7888 0.7933 0.8022 0.8112 0.8213 0.8292 0.8337 0.8393 0.8461 0.8517 0.8551 0.8584 0.8629 0.8663 0.8663 0.8640 0.8596 0.8551 0.8494 0.8404 0.8337 0.8258 0.8157 0.8045 0.7944 0.7820 0.7685 0.7539 0.7416 0.7315 0.7247 0.7213 0.7191 0.7169 0.7135 0.7112 0.7079 0.7067 0.7067 0.7067 0.7090 0.7135 0.7157 0.7157 0.7146 0.7124 0.7101 0.7135 0.7157 0.7236 0.7247 0.7258 0.7225 0.7157 0.7090 0.7011 0.6843 0.6629 0.6461 0.6270 0.6135 0.6056 0.6022 0.6022 0.6034 0.6034 0.6000 0.5944 0.5876 0.5798 0.5753 0.5697 0.5652 0.5618 0.5584 0.5551 0.5506 0.5461 0.5427 0.5393 0.5360 0.5337 0.5315 0.5303 0.5292 0.5292 0.5258 0.5225 0.5202 0.5169 0.5112 0.5067 0.5034 0.4978 0.4944 0.4910 0.4888 0.4865 0.4820 0.4764 0.4719 0.4674 0.4663 0.4663 0.4697 0.4742 0.4753 0.4719 0.4685 0.4663 0.4629 0.4584 0.4517 0.4461 0.4382 0.4348 0.4326 0.4303 0.4270 0.4258 0.4270 0.4281 0.4281 0.4281 0.4281 0.4281 0.4292 0.4326 0.4337 0.4348 0.4348 0.4337 0.4337 0.4337 0.4337 0.4326 0.4326 0.4348 0.4371 0.4404 0.4449 0.4494 0.4539 0.4573 0.4607 0.4607 0.4596 0.4584 0.4584 0.4584 0.4607 0.4629 0.4652 0.4652 0.4640 0.4618 0.4573 0.4528 0.4472 0.4449 0.4427 0.4404 0.4393 0.4393 0.4393 0.4416 0.4438 0.4494 0.4517 0.4517 0.4506 0.4483 0.4461 0.4449 0.4449 0.4461 0.4461 0.4461 0.4461 0.4472 0.4472 0.4472 0.4449 0.4416 0.4382 0.4337 0.4303 0.4270 0.4258 0.4270 0.4292 0.4281 0.4258 0.4213 0.4202 0.4225 0.4247 0.4270 0.4292 0.4326 0.4360 0.4416 0.4472 0.4506 0.4551 0.4607 0.4697 0.4775 0.4831 0.4876 0.4933 0.4978 0.4989 0.4978 0.4966 0.4955 0.4933 0.4921 0.4888 0.4854 0.4831 0.4809 0.4798 0.4775 0.4730 0.4652 0.4573 0.4506 0.4427 0.4348 0.4292 0.4213 0.4157 0.4112 0.4067 0.4000 0.3944 0.3876 0.3820 0.3809 0.3820 0.3854 0.3876 0.3910 0.3955 0.3966 0.3978 0.3989 0.3989 0.3989 0.4000 0.3989 0.3978 0.3955 0.3933 0.3921 0.3899 0.3854 0.3831 0.3775 0.3719 0.3674 0.3629 0.3629 0.3697 0.3809 0.3888 0.3944 0.3978 0.3955 0.3921 0.3910 0.3955 0.3989 0.4022 0.4067 0.4135 0.4202 0.4247 0.4303 0.4360 0.4438 0.4494 0.4539 0.4584 0.4618 0.4652 0.4697 0.4719 0.4764 0.4798 0.4831 0.4865 0.4910 0.4955 0.5000 0.5045 0.5101
0.6135 0.6146 0.6146 0.6157 0.6157 0.6157 0.6157 0.6169 0.6202 0.6213 0.6225 0.6236 0.6236 0.6236 0.6236 0.6247 0.6258 0.6270 0.6292 0.6303 0.6315 0.6315 0.6281 0.6236 0.6191 0.6135 0.6101 0.6090 0.6101 0.6101 0.6090 0.6079 0.6079 0.6090 0.6112 0.6135 0.6169 0.6202 0.6236 0.6281 0.6348 0.6404 0.6472 0.6528 0.6607 0.6685 0.6764 0.6843 0.6944 0.7034 0.7112 0.7180 0.7236 0.7337 0.7427 0.7483 0.7539 0.7640 0.7775 0.7888 0.7989 0.8079 0.8157 0.8225 0.8247 0.8225 0.8191 0.8146 0.8101 0.8079 0.8045 0.8011 0.7933 0.7854 0.7764 0.7685 0.7629 0.7551 0.7483 0.7427 0.7416 0.7438 0.7449 0.7438 0.7449 0.7494 0.7539 0.7584 0.7629 0.7652 0.7674 0.7685 0.7708 0.7742 0.7775 0.7809 0.7843 0.7876 0.7921 0.7989 0.8079 0.8157 0.8225 0.8270 0.8326 0.8404 0.8472 0.8517 0.8551 0.8607 0.8652 0.8674 0.8685 0.8663 0.8618 0.8562 0.8494 0.8404 0.8326 0.8225 0.8124 0.8034 0.7944 0.7809 0.7663 0.7517 0.7416 0.7348 0.7292 0.7270 0.7247 0.7225 0.7213 0.7180 0.7169 0.7157 0.7157 0.7180 0.7213 0.7236 0.7213 0.7225 0.7236 0.7247 0.7281 0.7326 0.7393 0.7427 0.7404 0.7382 0.7337 0.7258 0.7090 0.6876 0.6708 0.6528 0.6360 0.6202 0.6079 0.6045 0.6034 0.6034 0.6045 0.6022 0.6000 0.5933 0.5854 0.5787 0.5730 0.5685 0.5629 0.5596 0.5551 0.5494 0.5461 0.5427 0.5393 0.5360 0.5326 0.5303 0.5292 0.5281 0.5281 0.5270 0.5247 0.5191 0.5157 0.5124 0.5090 0.5045 0.5000 0.4955 0.4921 0.4876 0.4843 0.4798 0.4742 0.4708 0.4674 0.4640 0.4618 0.4618 0.4629 0.4640 0.4640 0.4640 0.4629 0.4607 0.4573 0.4517 0.4449 0.4393 0.4348 0.4303 0.4270 0.4236 0.4213 0.4225 0.4236 0.4247 0.4247 0.4247 0.4258 0.4292 0.4303 0.4315 0.4315 0.4315 0.4315 0.4326 0.4326 0.4315 0.4303 0.4303 0.4315 0.4337 0.4371 0.4416 0.4461 0.4494 0.4539 0.4562 0.4573 0.4562 0.4562 0.4562 0.4573 0.4596 0.4629 0.4629 0.4607 0.4584 0.4562 0.4517 0.4461 0.4438 0.4404 0.4371 0.4360 0.4348 0.4337 0.4326 0.4337 0.4382 0.4427 0.4461 0.4472 0.4472 0.4449 0.4427 0.4416 0.4404 0.4416 0.4416 0.4416 0.4404 0.4404 0.4416 0.4404 0.4404 0.4382 0.4348 0.4315 0.4281 0.4247 0.4236 0.4247 0.4270 0.4270 0.4236 0.4202 0.4191 0.4202 0.4247 0.4281 0.4292 0.4315 0.4360 0.4438 0.4517 0.4562 0.4596 0.4640 0.4708 0.4798 0.4854 0.4910 0.4955 0.4966 0.4955 0.4933 0.4899 0.4865 0.4831 0.4831 0.4843 0.4809 0.4798 0.4775 0.4764 0.4719 0.4663 0.4607 0.4551 0.4494 0.4438 0.4382 0.4303 0.4236 0.4146 0.4090 0.4045 0.3989 0.3933 0.3865 0.3820 0.3798 0.3809 0.3820 0.3854 0.3888 0.3910 0.3921 0.3944 0.3955 0.3966 0.3955 0.3955 0.3955 0.3944 0.3933 0.3910 0.3899 0.3899 0.3854 0.3809 0.3764 0.3708 0.3663 0.3607 0.3596 0.3629 0.3730 0.3820 0.3854 0.3899 0.3888 0.3876 0.3888 0.3933 0.3978 0.4022 0.4079 0.4135 0.4191 0.4236 0.4292 0.4348 0.4393 0.4472 0.4528 0.4573 0.4596 0.4629 0.4663 0.4697 0.4730 0.4787 0.4831 0.4876 0.4944 0.5000 0.5056 0.5079 0.5124
0.6101 0.6112 0.6124 0.6135 0.6135 0.6124 0.6124 0.6135 0.6157 0.6169 0.6169 0.6169 0.6169 0.6169 0.6157 0.6146 0.6180 0.6202 0.6202 0.6202 0.6213 0.6202 0.6180 0.6146 0.6101 0.6067 0.6045 0.6034 0.6034 0.6034 0.6034 0.6022 0.6022 0.6034 0.6056 0.6090 0.6124 0.6169 0.6225 0.6292 0.6360 0.6438 0.6494 0.6551 0.6629 0.6742 0.6843 0.6933 0.7011 0.7079 0.7157 0.7258 0.7382 0.7494 0.7584 0.7618 0.7674 0.7742 0.7809 0.7910 0.8011 0.8124 0.8236 0.8303 0.8326 0.8281 0.8236 0.8202 0.8180 0.8169 0.8146 0.8067 0.7966 0.7865 0.7787 0.7708 0.7629 0.7562 0.7506 0.7483 0.7483 0.7494 0.7517 0.7528 0.7551 0.7596 0.7629 0.7674 0.7697 0.7697 0.7708 0.7730 0.7764 0.7809 0.7831 0.7854 0.7888 0.7921 0.7966 0.8022 0.8067 0.8124 0.8180 0.8213 0.8258 0.8315 0.8404 0.8461 0.8506 0.8539 0.8573 0.8584 0.8607 0.8618 0.8618 0.8584 0.8528 0.8472 0.8404 0.8315 0.8213 0.8124 0.8034 0.7921 0.7809 0.7663 0.7562 0.7483 0.7427 0.7382 0.7360 0.7348 0.7326 0.7315 0.7292 0.7258 0.7247 0.7281 0.7292 0.7258 0.7258 0.7270 0.7303 0.7360 0.7416 0.7483 0.7551 0.7573 0.7551 0.7506 0.7438 0.7326 0.7157 0.6989 0.6775 0.6607 0.6449 0.6303 0.6180 0.6090 0.6067 0.6045 0.6045 0.6022 0.6000 0.5978 0.5933 0.5865 0.5775 0.5730 0.5674 0.5629 0.5584 0.5551 0.5517 0.5483 0.5438 0.5404 0.5371 0.5337 0.5303 0.5270 0.5258 0.5258 0.5236 0.5202 0.5157 0.5124 0.5090 0.5045 0.5000 0.4955 0.4910 0.4876 0.4820 0.4753 0.4719 0.4697 0.4663 0.4640 0.4607 0.4584 0.4562 0.4551 0.4539 0.4539 0.4551 0.4539 0.4517 0.4483 0.4427 0.4371 0.4326 0.4292 0.4258 0.4236 0.4225 0.4213 0.4213 0.4202 0.4202 0.4202 0.4225 0.4258 0.4281 0.4281 0.4281 0.4281 0.4292 0.4292 0.4303 0.4303 0.4281 0.4281 0.4292 0.4292 0.4337 0.4393 0.4438 0.4461 0.4506 0.4539 0.4539 0.4551 0.4551 0.4562 0.4562 0.4573 0.4584 0.4584 0.4551 0.4506 0.4472 0.4438 0.4416 0.4382 0.4360 0.4337 0.4315 0.4281 0.4258 0.4247 0.4281 0.4326 0.4371 0.4416 0.4427 0.4427 0.4404 0.4382 0.4360 0.4371 0.4382 0.4382 0.4371 0.4360 0.4371 0.4360 0.4348 0.4371 0.4348 0.4315 0.4281 0.4247 0.4225 0.4202 0.4225 0.4247 0.4247 0.4225 0.4191 0.4180 0.4180 0.4225 0.4270 0.4292 0.4326 0.4371 0.4461 0.4551 0.4596 0.4640 0.4685 0.4742 0.4831 0.4899 0.4933 0.4955 0.4944 0.4921 0.4876 0.4843 0.4798 0.4764 0.4764 0.4764 0.4753 0.4742 0.4719 0.4685 0.4629 0.4584 0.4551 0.4494 0.4461 0.4449 0.4404 0.4348 0.4258 0.4169 0.4101 0.4034 0.3978 0.3921 0.3876 0.3820 0.3775 0.3764 0.3787 0.3820 0.3854 0.3865 0.3865 0.3888 0.3910 0.3921 0.3933 0.3933 0.3921 0.3910 0.3910 0.3899 0.3888 0.3888 0.3865 0.3798 0.3730 0.3674 0.3629 0.3596 0.3562 0.3607 0.3685 0.3753 0.3809 0.3843 0.3865 0.3843 0.3843 0.3888 0.3933 0.3989 0.4056 0.4112 0.4180 0.4236 0.4281 0.4337 0.4393 0.4472 0.4528 0.4573 0.4618 0.4652 0.4674 0.4685 0.4730 0.4787 0.4843 0.4899 0.4966 0.5022 0.5067 0.5112 0.5146
0.6056 0.6067 0.6079 0.6079 0.6079 0.6067 0.6067 0.6090 0.6090 0.6090 0.6090 0.6090 0.6090 0.6090 0.6079 0.6101 0.6124 0.6135 0.6135 0.6135 0.6101 0.6079 0.6056 0.6045 0.6034 0.6000 0.5966 0.5944 0.5933 0.5944 0.5955 0.5955 0.5966 0.5978 0.6011 0.6056 0.6124 0.6191 0.6258 0.6337 0.6393 0.6461 0.6539 0.6618 0.6719 0.6865 0.6966 0.7045 0.7146 0.7247 0.7326 0.7416 0.7517 0.7640 0.7753 0.7831 0.7876 0.7888 0.7921 0.7966 0.8056 0.8191 0.8303 0.8382 0.8393 0.8348 0.8303 0.8270 0.8247 0.8225 0.8169 0.8090 0.7989 0.7899 0.7809 0.7742 0.7674 0.7618 0.7596 0.7562 0.7551 0.7551 0.7562 0.7573 0.7607 0.7640 0.7674 0.7719 0.7742 0.7764 0.7787 0.7820 0.7854 0.7876 0.7910 0.7933 0.7978 0.8000 0.8034 0.8045 0.8079 0.8112 0.8135 0.8169 0.8191 0.8225 0.8292 0.8360 0.8393 0.8427 0.8449 0.8449 0.8461 0.8506 0.8539 0.8573 0.8584 0.8562 0.8517 0.8472 0.8371 0.8247 0.8146 0.8045 0.7944 0.7854 0.7730 0.7618 0.7562 0.7517 0.7472 0.7438 0.7438 0.7427 0.7393 0.7382 0.7371 0.7360 0.7337 0.7326 0.7326 0.7371 0.7438 0.7506 0.7584 0.7640 0.7685 0.7719 0.7685 0.7652 0.7551 0.7427 0.7281 0.7101 0.6910 0.6753 0.6607 0.6438 0.6326 0.6236 0.6157 0.6112 0.6067 0.6045 0.6034 0.6056 0.6045 0.6000 0.5921 0.5820 0.5775 0.5719 0.5685 0.5640 0.5607 0.5551 0.5483 0.5438 0.5404 0.5371 0.5315 0.5270 0.5236 0.5225 0.5213 0.5202 0.5169 0.5146 0.5101 0.5045 0.5000 0.4944 0.4888 0.4854 0.4798 0.4742 0.4719 0.4685 0.4652 0.4629 0.4607 0.4584 0.4551 0.4517 0.4472 0.4449 0.4449 0.4449 0.4438 0.4416 0.4382 0.4337 0.4303 0.4270 0.4236 0.4236 0.4236 0.4236 0.4213 0.4191 0.4169 0.4180 0.4202 0.4236 0.4270 0.4270 0.4270 0.4258 0.4258 0.4258 0.4258 0.4258 0.4270 0.4258 0.4258 0.4270 0.4292 0.4337 0.4393 0.4438 0.4472 0.4494 0.4506 0.4506 0.4528 0.4551 0.4551 0.4528 0.4528 0.4506 0.4472 0.4427 0.4393 0.4371 0.4348 0.4326 0.4303 0.4281 0.4258 0.4236 0.4202 0.4202 0.4225 0.4270 0.4326 0.4371 0.4382 0.4371 0.4337 0.4315 0.4315 0.4326 0.4326 0.4326 0.4326 0.4337 0.4337 0.4315 0.4326 0.4326 0.4315 0.4281 0.4247 0.4213 0.4191 0.4191 0.4202 0.4225 0.4225 0.4213 0.4191 0.4157 0.4157 0.4202 0.4258 0.4292 0.4326 0.4382 0.4449 0.4517 0.4573 0.4629 0.4685 0.4764 0.4854 0.4910 0.4933 0.4933 0.4899 0.4865 0.4831 0.4787 0.4753 0.4719 0.4697 0.4697 0.4685 0.4663 0.4629 0.4573 0.4551 0.4528 0.4494 0.4461 0.4427 0.4404 0.4348 0.4315 0.4258 0.4191 0.4124 0.4056 0.3978 0.3921 0.3865 0.3809 0.3753 0.3719 0.3742 0.3798 0.3820 0.3831 0.3831 0.3831 0.3865 0.3888 0.3899 0.3899 0.3888 0.3876 0.3865 0.3865 0.3865 0.3865 0.3843 0.3775 0.3708 0.3652 0.3596 0.3562 0.3551 0.3596 0.3674 0.3730 0.3764 0.3787 0.3775 0.3787 0.3820 0.3843 0.3876 0.3933 0.4022 0.4112 0.4180 0.4225 0.4292 0.4348 0.4427 0.4494 0.4562 0.4596 0.4640 0.4663 0.4674 0.4685 0.4708 0.4764 0.4831 0.4888 0.4944 0.4989 0.5034 0.5079 0.5112
0.6000 0.6011 0.6011 0.6011 0.6000 0.5989 0.6000 0.6022 0.6034 0.6034 0.6011 0.6011 0.6022 0.6011 0.6011 0.6022 0.6056 0.6067 0.6067 0.6045 0.6022 0.6000 0.5966 0.5955 0.5944 0.5910 0.5876 0.5843 0.5854 0.5876 0.5888 0.5899 0.5910 0.5933 0.5989 0.6056 0.6124 0.6202 0.6281 0.6348 0.6404 0.6472 0.6562 0.6674 0.6809 0.6933 0.7045 0.7146 0.7247 0.7393 0.7472 0.7551 0.7640 0.7775 0.7921 0.8022 0.8067 0.8067 0.8079 0.8124 0.8202 0.8281 0.8382 0.8461 0.8449 0.8393 0.8360 0.8326 0.8303 0.8258 0.8191 0.8101 0.8000 0.7921 0.7843 0.7787 0.7742 0.7708 0.7697 0.7685 0.7652 0.7640 0.7640 0.7652 0.7674 0.7685 0.7719 0.7753 0.7809 0.7843 0.7876 0.7910 0.7899 0.7921 0.7944 0.7978 0.8011 0.8022 0.8034 0.8045 0.8045 0.8045 0.8056 0.8079 0.8101 0.8135 0.8180 0.8236 0.8281 0.8303 0.8303 0.8292 0.8326 0.8382 0.8427 0.8506 0.8584 0.8663 0.8640 0.8596 0.8506 0.8393 0.8258 0.8157 0.8079 0.7989 0.7876 0.7787 0.7719 0.7663 0.7607 0.7573 0.7562 0.7539 0.7506 0.7483 0.7438 0.7404 0.7393 0.7404 0.7438 0.7517 0.7584 0.7652 0.7719 0.7798 0.7831 0.7820 0.7775 0.7742 0.7663 0.7539 0.7393 0.7258 0.7056 0.6899 0.6753 0.6596 0.6461 0.6360 0.6247 0.6169 0.6124 0.6101 0.6101 0.6124 0.6135 0.6135 0.6079 0.6022 0.5944 0.5888 0.5809 0.5753 0.5674 0.5573 0.5494 0.5438 0.5393 0.5337 0.5292 0.5247 0.5213 0.5191 0.5180 0.5180 0.5180 0.5157 0.5124 0.5056 0.4989 0.4944 0.4899 0.4854 0.4809 0.4764 0.4742 0.4708 0.4674 0.4629 0.4596 0.4573 0.4551 0.4517 0.4461 0.4416 0.4393 0.4382 0.4371 0.4348 0.4326 0.4281 0.4258 0.4236 0.4225 0.4213 0.4225 0.4225 0.4225 0.4191 0.4169 0.4169 0.4191 0.4213 0.4236 0.4225 0.4213 0.4225 0.4225 0.4225 0.4225 0.4236 0.4247 0.4236 0.4225 0.4236 0.4247 0.4303 0.4348 0.4382 0.4404 0.4427 0.4416 0.4449 0.4483 0.4506 0.4506 0.4494 0.4483 0.4461 0.4416 0.4371 0.4326 0.4303 0.4281 0.4270 0.4247 0.4213 0.4191 0.4169 0.4169 0.4169 0.4180 0.4236 0.4281 0.4348 0.4360 0.4337 0.4315 0.4292 0.4270 0.4270 0.4270 0.4281 0.4303 0.4303 0.4315 0.4303 0.4292 0.4270 0.4258 0.4236 0.4213 0.4191 0.4157 0.4146 0.4169 0.4191 0.4202 0.4191 0.4169 0.4146 0.4146 0.4202 0.4247 0.4292 0.4337 0.4382 0.4438 0.4506 0.4562 0.4629 0.4685 0.4764 0.4843 0.4888 0.4921 0.4888 0.4831 0.4787 0.4764 0.4730 0.4697 0.4663 0.4629 0.4607 0.4596 0.4584 0.4551 0.4539 0.4517 0.4494 0.4461 0.4416 0.4393 0.4348 0.4303 0.4258 0.4236 0.4191 0.4157 0.4090 0.4034 0.3955 0.3888 0.3831 0.3775 0.3730 0.3719 0.3742 0.3775 0.3798 0.3798 0.3809 0.3820 0.3843 0.3854 0.3865 0.3876 0.3865 0.3843 0.3831 0.3820 0.3831 0.3820 0.3753 0.3697 0.3640 0.3573 0.3551 0.3551 0.3596 0.3652 0.3697 0.3708 0.3708 0.3708 0.3708 0.3764 0.3820 0.3865 0.3933 0.4034 0.4112 0.4180 0.4236 0.4292 0.4348 0.4393 0.4472 0.4539 0.4573 0.4607 0.4629 0.4640 0.4652 0.4685 0.4719 0.4775 0.4831 0.4899 0.4955 0.4989 0.5034 0.5067
