0.6202 0.6202 0.6218 0.6226 0.6226 0.6218 0.6194 0.6179 0.6179 0.6194 0.6210 0.6218 0.6218 0.6226 0.6233 0.6249 0.6257 0.6273 0.6288 0.6280 0.6273 0.6257 0.6241 0.6233 0.6233 0.6241 0.6249 0.6257 0.6257 0.6249 0.6241 0.6249 0.6249 0.6265 0.6280 0.6296 0.6296 0.6280 0.6288 0.6288 0.6288 0.6288 0.6288 0.6280 0.6273 0.6273 0.6273 0.6273 0.6273 0.6273 0.6273 0.6288 0.6296 0.6312 0.6296 0.6265 0.6249 0.6249 0.6233 0.6218 0.6202 0.6171 0.6147 0.6132 0.6116 0.6092 0.6053 0.6038 0.6030 0.6014 0.5991 0.5983 0.5967 0.5944 0.5920 0.5904 0.5897 0.5897 0.5889 0.5881 0.5873 0.5881 0.5897 0.5897 0.5889 0.5873 0.5842 0.5803 0.5810 0.5818 0.5818 0.5818 0.5818 0.5803 0.5787 0.5771 0.5771 0.5771 0.5748 0.5717 0.5670 0.5638 0.5615 0.5599 0.5599 0.5591 0.5583 0.5576 0.5576 0.5568 0.5576 0.5576 0.5583 0.5615 0.5638 0.5646 0.5670 0.5685 0.5693 0.5701 0.5701 0.5693 0.5662 0.5630 0.5615 0.5615 0.5607 0.5599 0.5591 0.5583 0.5599 0.5607 0.5599 0.5599 0.5599 0.5607 0.5607 0.5607 0.5607 0.5615 0.5638 0.5677 0.5693 0.5693 0.5693 0.5693 0.5693 0.5685 0.5670 0.5654 0.5662 0.5670 0.5670 0.5662 0.5662 0.5662 0.5654 0.5646 0.5638 0.5623 0.5599 0.5576 0.5591 0.5607 0.5607 0.5607 0.5607 0.5623 0.5630 0.5638 0.5646 0.5662 0.5677 0.5693 0.5701 0.5693 0.5685 0.5670 0.5654 0.5638 0.5623 0.5599 0.5568 0.5544 0.5552 0.5552 0.5576 0.5599 0.5623 0.5638 0.5638 0.5646 0.5638 0.5615 0.5591 0.5560 0.5536 0.5529 0.5521 0.5521 0.5513 0.5513 0.5505 0.5497 0.5489 0.5474 0.5482 0.5482 0.5482 0.5482 0.5482 0.5482 0.5489 0.5497 0.5497 0.5505 0.5505 0.5505 0.5513 0.5513 0.5521 0.5529 0.5536 0.5544 0.5544 0.5552 0.5568 0.5599 0.5630 0.5670 0.5701 0.5724 0.5740 0.5732 0.5709 0.5677 0.5670 0.5677 0.5693 0.5701 0.5709
0.6226 0.6226 0.6233 0.6241 0.6226 0.6210 0.6186 0.6179 0.6179 0.6194 0.6210 0.6210 0.6218 0.6226 0.6233 0.6249 0.6257 0.6265 0.6273 0.6273 0.6257 0.6233 0.6218 0.6218 0.6218 0.6233 0.6249 0.6257 0.6265 0.6257 0.6241 0.6233 0.6233 0.6241 0.6249 0.6273 0.6280 0.6265 0.6257 0.6265 0.6265 0.6273 0.6280 0.6280 0.6273 0.6265 0.6257 0.6265 0.6265 0.6265 0.6273 0.6280 0.6319 0.6351 0.6351 0.6327 0.6312 0.6304 0.6296 0.6288 0.6257 0.6226 0.6194 0.6171 0.6155 0.6132 0.6100 0.6077 0.6061 0.6030 0.6006 0.5998 0.5975 0.5959 0.5944 0.5920 0.5912 0.5904 0.5904 0.5897 0.5897 0.5897 0.5912 0.5912 0.5904 0.5889 0.5865 0.5842 0.5834 0.5842 0.5842 0.5834 0.5834 0.5826 0.5810 0.5810 0.5810 0.5795 0.5771 0.5740 0.5701 0.5670 0.5646 0.5623 0.5599 0.5599 0.5591 0.5583 0.5576 0.5560 0.5560 0.5560 0.5560 0.5576 0.5599 0.5615 0.5638 0.5662 0.5677 0.5685 0.5685 0.5677 0.5662 0.5630 0.5607 0.5591 0.5583 0.5576 0.5576 0.5576 0.5583 0.5583 0.5583 0.5576 0.5576 0.5583 0.5591 0.5591 0.5591 0.5607 0.5638 0.5662 0.5677 0.5670 0.5662 0.5662 0.5670 0.5654 0.5630 0.5630 0.5630 0.5638 0.5638 0.5638 0.5638 0.5638 0.5630 0.5630 0.5607 0.5583 0.5576 0.5568 0.5560 0.5576 0.5591 0.5591 0.5599 0.5607 0.5623 0.5630 0.5646 0.5646 0.5662 0.5670 0.5677 0.5670 0.5662 0.5654 0.5638 0.5623 0.5607 0.5583 0.5560 0.5552 0.5544 0.5544 0.5552 0.5560 0.5583 0.5591 0.5599 0.5607 0.5599 0.5576 0.5544 0.5521 0.5505 0.5505 0.5505 0.5497 0.5489 0.5482 0.5482 0.5482 0.5482 0.5482 0.5482 0.5482 0.5482 0.5474 0.5474 0.5474 0.5482 0.5489 0.5489 0.5482 0.5482 0.5482 0.5489 0.5489 0.5497 0.5505 0.5521 0.5521 0.5529 0.5536 0.5552 0.5576 0.5615 0.5646 0.5677 0.5701 0.5709 0.5693 0.5670 0.5646 0.5638 0.5646 0.5654 0.5670 0.5685
0.6241 0.6249 0.6249 0.6241 0.6226 0.6210 0.6202 0.6186 0.6186 0.6194 0.6210 0.6210 0.6218 0.6226 0.6233 0.6249 0.6249 0.6257 0.6257 0.6257 0.6241 0.6218 0.6194 0.6194 0.6194 0.6210 0.6233 0.6249 0.6265 0.6249 0.6226 0.6218 0.6233 0.6233 0.6249 0.6265 0.6265 0.6241 0.6233 0.6241 0.6241 0.6257 0.6265 0.6265 0.6257 0.6241 0.6233 0.6233 0.6249 0.6257 0.6257 0.6296 0.6327 0.6359 0.6382 0.6390 0.6359 0.6343 0.6335 0.6319 0.6288 0.6257 0.6233 0.6210 0.6179 0.6139 0.6116 0.6092 0.6085 0.6061 0.6038 0.6014 0.5991 0.5975 0.5959 0.5936 0.5920 0.5904 0.5904 0.5897 0.5897 0.5897 0.5904 0.5897 0.5889 0.5881 0.5873 0.5857 0.5842 0.5826 0.5826 0.5818 0.5818 0.5818 0.5818 0.5818 0.5818 0.5810 0.5795 0.5756 0.5724 0.5693 0.5662 0.5638 0.5615 0.5615 0.5607 0.5591 0.5576 0.5560 0.5544 0.5536 0.5544 0.5552 0.5568 0.5583 0.5599 0.5623 0.5646 0.5662 0.5662 0.5670 0.5662 0.5646 0.5623 0.5599 0.5568 0.5552 0.5560 0.5568 0.5568 0.5568 0.5568 0.5560 0.5560 0.5568 0.5576 0.5583 0.5591 0.5607 0.5623 0.5638 0.5638 0.5630 0.5630 0.5638 0.5646 0.5638 0.5630 0.5607 0.5591 0.5599 0.5615 0.5623 0.5615 0.5607 0.5599 0.5591 0.5591 0.5576 0.5560 0.5552 0.5552 0.5560 0.5568 0.5576 0.5576 0.5576 0.5599 0.5615 0.5630 0.5630 0.5623 0.5630 0.5630 0.5630 0.5623 0.5623 0.5615 0.5607 0.5591 0.5568 0.5560 0.5552 0.5536 0.5529 0.5521 0.5529 0.5536 0.5552 0.5552 0.5560 0.5560 0.5544 0.5521 0.5513 0.5497 0.5489 0.5489 0.5482 0.5474 0.5466 0.5474 0.5466 0.5474 0.5474 0.5474 0.5474 0.5466 0.5466 0.5466 0.5466 0.5466 0.5474 0.5482 0.5482 0.5474 0.5474 0.5466 0.5474 0.5474 0.5482 0.5489 0.5497 0.5513 0.5521 0.5536 0.5560 0.5583 0.5615 0.5638 0.5662 0.5677 0.5662 0.5646 0.5630 0.5615 0.5615 0.5630 0.5638 0.5654
0.6257 0.6257 0.6257 0.6249 0.6241 0.6233 0.6218 0.6210 0.6202 0.6210 0.6218 0.6218 0.6218 0.6226 0.6233 0.6241 0.6241 0.6241 0.6241 0.6233 0.6226 0.6202 0.6179 0.6171 0.6179 0.6194 0.6210 0.6233 0.6249 0.6233 0.6202 0.6202 0.6218 0.6233 0.6241 0.6241 0.6233 0.6226 0.6218 0.6218 0.6218 0.6218 0.6233 0.6233 0.6226 0.6218 0.6210 0.6210 0.6226 0.6241 0.6257 0.6288 0.6312 0.6335 0.6374 0.6390 0.6382 0.6359 0.6343 0.6327 0.6304 0.6280 0.6249 0.6241 0.6210 0.6163 0.6124 0.6108 0.6100 0.6085 0.6061 0.6038 0.6014 0.5991 0.5967 0.5936 0.5912 0.5897 0.5889 0.5881 0.5881 0.5881 0.5873 0.5873 0.5865 0.5857 0.5850 0.5834 0.5818 0.5803 0.5803 0.5803 0.5803 0.5803 0.5803 0.5803 0.5803 0.5803 0.5795 0.5771 0.5740 0.5701 0.5670 0.5646 0.5630 0.5623 0.5615 0.5599 0.5576 0.5560 0.5544 0.5536 0.5536 0.5544 0.5552 0.5568 0.5583 0.5591 0.5607 0.5630 0.5654 0.5654 0.5654 0.5646 0.5638 0.5615 0.5576 0.5544 0.5536 0.5544 0.5544 0.5544 0.5544 0.5536 0.5544 0.5552 0.5560 0.5568 0.5576 0.5591 0.5599 0.5599 0.5599 0.5607 0.5607 0.5615 0.5623 0.5623 0.5615 0.5599 0.5576 0.5576 0.5591 0.5599 0.5591 0.5576 0.5568 0.5568 0.5568 0.5560 0.5552 0.5536 0.5536 0.5544 0.5560 0.5568 0.5568 0.5568 0.5583 0.5615 0.5615 0.5607 0.5599 0.5591 0.5591 0.5583 0.5576 0.5583 0.5591 0.5583 0.5568 0.5560 0.5552 0.5536 0.5521 0.5513 0.5505 0.5505 0.5521 0.5529 0.5529 0.5529 0.5521 0.5505 0.5489 0.5489 0.5489 0.5482 0.5474 0.5466 0.5466 0.5466 0.5458 0.5450 0.5450 0.5450 0.5450 0.5458 0.5458 0.5458 0.5458 0.5450 0.5450 0.5450 0.5474 0.5482 0.5489 0.5474 0.5474 0.5466 0.5466 0.5466 0.5466 0.5474 0.5489 0.5497 0.5513 0.5529 0.5552 0.5576 0.5599 0.5623 0.5630 0.5630 0.5630 0.5615 0.5591 0.5583 0.5599 0.5615 0.5630
0.6273 0.6273 0.6273 0.6273 0.6265 0.6249 0.6241 0.6226 0.6226 0.6233 0.6233 0.6233 0.6226 0.6226 0.6226 0.6233 0.6233 0.6233 0.6233 0.6233 0.6218 0.6210 0.6179 0.6163 0.6163 0.6171 0.6194 0.6210 0.6226 0.6202 0.6186 0.6179 0.6194 0.6202 0.6210 0.6210 0.6210 0.6202 0.6202 0.6194 0.6186 0.6186 0.6194 0.6202 0.6202 0.6194 0.6194 0.6194 0.6210 0.6233 0.6257 0.6273 0.6288 0.6312 0.6343 0.6366 0.6366 0.6351 0.6335 0.6319 0.6304 0.6280 0.6273 0.6257 0.6233 0.6202 0.6163 0.6132 0.6116 0.6092 0.6069 0.6045 0.6022 0.6006 0.5967 0.5936 0.5912 0.5889 0.5881 0.5865 0.5865 0.5857 0.5850 0.5842 0.5842 0.5834 0.5826 0.5810 0.5795 0.5795 0.5795 0.5787 0.5779 0.5779 0.5779 0.5779 0.5779 0.5787 0.5787 0.5771 0.5740 0.5709 0.5677 0.5654 0.5638 0.5630 0.5615 0.5591 0.5576 0.5560 0.5544 0.5536 0.5536 0.5529 0.5536 0.5544 0.5552 0.5568 0.5583 0.5615 0.5638 0.5646 0.5630 0.5630 0.5630 0.5623 0.5583 0.5552 0.5536 0.5536 0.5536 0.5536 0.5529 0.5529 0.5536 0.5544 0.5552 0.5552 0.5560 0.5568 0.5568 0.5568 0.5568 0.5576 0.5583 0.5599 0.5599 0.5591 0.5591 0.5583 0.5568 0.5560 0.5568 0.5560 0.5552 0.5544 0.5536 0.5536 0.5544 0.5544 0.5529 0.5529 0.5529 0.5536 0.5544 0.5552 0.5568 0.5576 0.5599 0.5623 0.5623 0.5599 0.5583 0.5568 0.5552 0.5544 0.5544 0.5560 0.5560 0.5552 0.5544 0.5536 0.5529 0.5513 0.5505 0.5497 0.5497 0.5497 0.5505 0.5513 0.5513 0.5505 0.5497 0.5482 0.5466 0.5474 0.5482 0.5489 0.5466 0.5458 0.5458 0.5458 0.5450 0.5435 0.5435 0.5435 0.5435 0.5450 0.5450 0.5450 0.5442 0.5442 0.5435 0.5435 0.5450 0.5466 0.5466 0.5466 0.5466 0.5458 0.5458 0.5450 0.5442 0.5450 0.5466 0.5489 0.5497 0.5505 0.5513 0.5536 0.5560 0.5583 0.5599 0.5599 0.5591 0.5583 0.5568 0.5560 0.5568 0.5591 0.5615
0.6273 0.6273 0.6273 0.6273 0.6265 0.6249 0.6241 0.6241 0.6241 0.6241 0.6241 0.6233 0.6226 0.6218 0.6226 0.6233 0.6241 0.6241 0.6233 0.6226 0.6218 0.6202 0.6186 0.6163 0.6147 0.6155 0.6171 0.6186 0.6194 0.6186 0.6171 0.6163 0.6171 0.6179 0.6186 0.6194 0.6194 0.6179 0.6171 0.6163 0.6163 0.6163 0.6171 0.6179 0.6186 0.6186 0.6186 0.6202 0.6226 0.6241 0.6257 0.6265 0.6288 0.6304 0.6327 0.6359 0.6359 0.6343 0.6319 0.6304 0.6280 0.6273 0.6273 0.6265 0.6249 0.6226 0.6186 0.6163 0.6132 0.6100 0.6069 0.6038 0.6022 0.5998 0.5967 0.5936 0.5912 0.5897 0.5873 0.5865 0.5857 0.5850 0.5834 0.5834 0.5834 0.5818 0.5810 0.5795 0.5779 0.5779 0.5779 0.5771 0.5764 0.5756 0.5756 0.5756 0.5756 0.5764 0.5764 0.5756 0.5740 0.5709 0.5685 0.5670 0.5654 0.5646 0.5630 0.5607 0.5583 0.5560 0.5544 0.5536 0.5529 0.5521 0.5529 0.5536 0.5544 0.5552 0.5576 0.5591 0.5615 0.5615 0.5607 0.5607 0.5607 0.5607 0.5576 0.5560 0.5544 0.5529 0.5521 0.5521 0.5513 0.5505 0.5513 0.5529 0.5529 0.5529 0.5536 0.5536 0.5529 0.5521 0.5529 0.5544 0.5560 0.5576 0.5576 0.5576 0.5576 0.5568 0.5560 0.5552 0.5552 0.5536 0.5521 0.5513 0.5513 0.5513 0.5513 0.5505 0.5505 0.5505 0.5513 0.5521 0.5521 0.5544 0.5560 0.5591 0.5615 0.5630 0.5623 0.5591 0.5560 0.5536 0.5529 0.5521 0.5529 0.5536 0.5544 0.5529 0.5521 0.5513 0.5497 0.5489 0.5497 0.5489 0.5489 0.5489 0.5489 0.5482 0.5489 0.5489 0.5482 0.5466 0.5458 0.5466 0.5482 0.5474 0.5458 0.5450 0.5450 0.5450 0.5442 0.5435 0.5427 0.5427 0.5427 0.5435 0.5442 0.5435 0.5435 0.5435 0.5435 0.5435 0.5435 0.5435 0.5435 0.5435 0.5442 0.5450 0.5450 0.5442 0.5427 0.5435 0.5458 0.5474 0.5474 0.5474 0.5474 0.5497 0.5521 0.5544 0.5560 0.5560 0.5552 0.5544 0.5536 0.5536 0.5536 0.5568 0.5591
0.6249 0.6249 0.6249 0.6241 0.6241 0.6241 0.6249 0.6249 0.6249 0.6249 0.6241 0.6233 0.6218 0.6226 0.6226 0.6233 0.6241 0.6241 0.6233 0.6218 0.6202 0.6194 0.6171 0.6147 0.6147 0.6147 0.6155 0.6155 0.6163 0.6163 0.6155 0.6147 0.6155 0.6163 0.6171 0.6179 0.6171 0.6155 0.6139 0.6139 0.6139 0.6155 0.6163 0.6171 0.6179 0.6179 0.6186 0.6202 0.6226 0.6249 0.6257 0.6257 0.6288 0.6312 0.6327 0.6343 0.6343 0.6327 0.6304 0.6280 0.6265 0.6265 0.6257 0.6257 0.6257 0.6241 0.6210 0.6179 0.6147 0.6100 0.6061 0.6038 0.6014 0.5991 0.5967 0.5944 0.5912 0.5889 0.5865 0.5850 0.5850 0.5842 0.5834 0.5826 0.5818 0.5810 0.5795 0.5779 0.5771 0.5771 0.5764 0.5756 0.5740 0.5732 0.5732 0.5732 0.5732 0.5740 0.5740 0.5732 0.5724 0.5709 0.5693 0.5677 0.5662 0.5662 0.5654 0.5638 0.5607 0.5576 0.5552 0.5536 0.5529 0.5521 0.5529 0.5536 0.5536 0.5544 0.5560 0.5576 0.5576 0.5576 0.5583 0.5583 0.5583 0.5576 0.5560 0.5552 0.5536 0.5521 0.5505 0.5497 0.5489 0.5489 0.5497 0.5505 0.5513 0.5513 0.5513 0.5513 0.5505 0.5505 0.5513 0.5536 0.5552 0.5560 0.5560 0.5560 0.5560 0.5552 0.5552 0.5552 0.5544 0.5521 0.5505 0.5497 0.5497 0.5497 0.5489 0.5489 0.5482 0.5489 0.5497 0.5505 0.5521 0.5536 0.5568 0.5599 0.5615 0.5615 0.5599 0.5576 0.5544 0.5529 0.5521 0.5521 0.5521 0.5521 0.5521 0.5513 0.5505 0.5497 0.5489 0.5489 0.5489 0.5489 0.5482 0.5474 0.5466 0.5466 0.5474 0.5482 0.5482 0.5474 0.5466 0.5458 0.5450 0.5450 0.5442 0.5450 0.5450 0.5442 0.5435 0.5427 0.5427 0.5427 0.5427 0.5427 0.5427 0.5427 0.5419 0.5427 0.5435 0.5442 0.5435 0.5427 0.5419 0.5419 0.5435 0.5442 0.5442 0.5435 0.5427 0.5435 0.5450 0.5450 0.5450 0.5450 0.5450 0.5474 0.5489 0.5505 0.5513 0.5521 0.5521 0.5513 0.5513 0.5505 0.5513 0.5536 0.5568
0.6233 0.6226 0.6218 0.6226 0.6241 0.6249 0.6249 0.6249 0.6249 0.6241 0.6226 0.6218 0.6218 0.6226 0.6233 0.6233 0.6233 0.6233 0.6226 0.6202 0.6186 0.6171 0.6147 0.6124 0.6124 0.6132 0.6139 0.6139 0.6139 0.6147 0.6139 0.6139 0.6139 0.6139 0.6147 0.6147 0.6132 0.6124 0.6116 0.6116 0.6124 0.6132 0.6147 0.6163 0.6171 0.6171 0.6179 0.6186 0.6210 0.6218 0.6226 0.6249 0.6280 0.6319 0.6335 0.6335 0.6335 0.6312 0.6288 0.6265 0.6249 0.6241 0.6233 0.6241 0.6249 0.6249 0.6218 0.6186 0.6139 0.6100 0.6061 0.6030 0.6006 0.5983 0.5959 0.5936 0.5912 0.5881 0.5857 0.5842 0.5834 0.5834 0.5826 0.5818 0.5810 0.5803 0.5787 0.5771 0.5764 0.5756 0.5756 0.5740 0.5732 0.5717 0.5709 0.5709 0.5717 0.5724 0.5717 0.5709 0.5701 0.5693 0.5685 0.5670 0.5670 0.5670 0.5670 0.5654 0.5638 0.5607 0.5576 0.5544 0.5536 0.5529 0.5521 0.5521 0.5513 0.5521 0.5536 0.5536 0.5536 0.5536 0.5552 0.5560 0.5560 0.5552 0.5544 0.5544 0.5529 0.5513 0.5505 0.5489 0.5482 0.5482 0.5489 0.5489 0.5497 0.5489 0.5489 0.5497 0.5489 0.5489 0.5513 0.5529 0.5544 0.5544 0.5544 0.5552 0.5544 0.5544 0.5544 0.5544 0.5529 0.5505 0.5497 0.5497 0.5497 0.5505 0.5497 0.5489 0.5482 0.5482 0.5482 0.5497 0.5513 0.5544 0.5576 0.5599 0.5607 0.5599 0.5583 0.5560 0.5544 0.5529 0.5521 0.5521 0.5513 0.5505 0.5497 0.5489 0.5482 0.5482 0.5474 0.5482 0.5489 0.5489 0.5482 0.5466 0.5466 0.5466 0.5474 0.5482 0.5489 0.5482 0.5466 0.5450 0.5435 0.5435 0.5442 0.5450 0.5450 0.5442 0.5435 0.5427 0.5427 0.5427 0.5427 0.5427 0.5435 0.5427 0.5427 0.5427 0.5435 0.5435 0.5427 0.5419 0.5411 0.5419 0.5427 0.5427 0.5427 0.5419 0.5419 0.5427 0.5435 0.5435 0.5427 0.5419 0.5427 0.5442 0.5458 0.5474 0.5474 0.5482 0.5489 0.5489 0.5489 0.5489 0.5497 0.5536 0.5552
0.6218 0.6210 0.6210 0.6226 0.6241 0.6249 0.6249 0.6241 0.6233 0.6226 0.6210 0.6218 0.6226 0.6233 0.6233 0.6233 0.6226 0.6226 0.6210 0.6186 0.6171 0.6155 0.6124 0.6100 0.6100 0.6124 0.6132 0.6147 0.6139 0.6124 0.6124 0.6124 0.6116 0.6108 0.6108 0.6108 0.6100 0.6100 0.6100 0.6108 0.6116 0.6124 0.6132 0.6147 0.6155 0.6163 0.6171 0.6179 0.6194 0.6202 0.6210 0.6233 0.6280 0.6312 0.6335 0.6335 0.6327 0.6304 0.6280 0.6257 0.6233 0.6218 0.6210 0.6218 0.6233 0.6233 0.6218 0.6179 0.6139 0.6116 0.6069 0.6030 0.6014 0.5998 0.5975 0.5951 0.5920 0.5889 0.5865 0.5850 0.5842 0.5826 0.5818 0.5810 0.5803 0.5795 0.5779 0.5764 0.5748 0.5740 0.5732 0.5732 0.5724 0.5709 0.5701 0.5701 0.5709 0.5701 0.5693 0.5685 0.5685 0.5677 0.5677 0.5670 0.5670 0.5670 0.5670 0.5654 0.5638 0.5630 0.5607 0.5568 0.5544 0.5529 0.5505 0.5497 0.5489 0.5497 0.5505 0.5505 0.5505 0.5513 0.5529 0.5536 0.5536 0.5529 0.5529 0.5529 0.5521 0.5513 0.5497 0.5489 0.5482 0.5474 0.5474 0.5474 0.5474 0.5474 0.5482 0.5482 0.5482 0.5489 0.5513 0.5529 0.5536 0.5536 0.5536 0.5536 0.5544 0.5544 0.5544 0.5536 0.5521 0.5505 0.5505 0.5497 0.5505 0.5505 0.5497 0.5489 0.5482 0.5482 0.5482 0.5489 0.5513 0.5544 0.5568 0.5576 0.5583 0.5576 0.5560 0.5544 0.5529 0.5521 0.5513 0.5505 0.5489 0.5482 0.5482 0.5474 0.5466 0.5450 0.5458 0.5458 0.5466 0.5466 0.5466 0.5458 0.5466 0.5466 0.5474 0.5474 0.5474 0.5474 0.5466 0.5450 0.5442 0.5435 0.5442 0.5442 0.5450 0.5442 0.5435 0.5435 0.5427 0.5427 0.5427 0.5435 0.5435 0.5435 0.5435 0.5442 0.5442 0.5435 0.5427 0.5419 0.5411 0.5411 0.5419 0.5419 0.5411 0.5411 0.5411 0.5419 0.5419 0.5419 0.5411 0.5403 0.5411 0.5411 0.5427 0.5435 0.5442 0.5450 0.5458 0.5474 0.5482 0.5489 0.5513 0.5521 0.5544
0.6202 0.6210 0.6210 0.6226 0.6241 0.6249 0.6241 0.6233 0.6218 0.6202 0.6202 0.6210 0.6218 0.6226 0.6226 0.6218 0.6210 0.6202 0.6186 0.6163 0.6147 0.6132 0.6108 0.6085 0.6085 0.6100 0.6132 0.6147 0.6139 0.6124 0.6116 0.6116 0.6100 0.6085 0.6085 0.6085 0.6085 0.6085 0.6092 0.6116 0.6124 0.6124 0.6124 0.6139 0.6155 0.6163 0.6163 0.6171 0.6171 0.6194 0.6218 0.6241 0.6273 0.6304 0.6327 0.6319 0.6312 0.6296 0.6273 0.6241 0.6218 0.6210 0.6202 0.6202 0.6210 0.6218 0.6194 0.6163 0.6132 0.6116 0.6069 0.6038 0.6030 0.6014 0.5983 0.5959 0.5928 0.5897 0.5889 0.5873 0.5850 0.5834 0.5826 0.5818 0.5803 0.5787 0.5764 0.5756 0.5748 0.5740 0.5740 0.5732 0.5732 0.5717 0.5709 0.5709 0.5701 0.5693 0.5677 0.5677 0.5677 0.5670 0.5662 0.5662 0.5662 0.5662 0.5654 0.5646 0.5646 0.5646 0.5623 0.5591 0.5560 0.5536 0.5513 0.5497 0.5482 0.5482 0.5482 0.5482 0.5489 0.5505 0.5521 0.5521 0.5513 0.5505 0.5497 0.5505 0.5497 0.5489 0.5482 0.5466 0.5466 0.5458 0.5458 0.5466 0.5466 0.5474 0.5482 0.5482 0.5482 0.5489 0.5505 0.5521 0.5529 0.5529 0.5529 0.5529 0.5544 0.5544 0.5544 0.5529 0.5521 0.5505 0.5489 0.5489 0.5489 0.5489 0.5489 0.5482 0.5474 0.5474 0.5482 0.5489 0.5505 0.5529 0.5544 0.5552 0.5552 0.5536 0.5536 0.5529 0.5521 0.5505 0.5497 0.5482 0.5474 0.5466 0.5474 0.5474 0.5466 0.5450 0.5450 0.5450 0.5450 0.5458 0.5458 0.5458 0.5466 0.5474 0.5474 0.5466 0.5474 0.5474 0.5466 0.5458 0.5450 0.5442 0.5435 0.5435 0.5435 0.5435 0.5435 0.5435 0.5435 0.5435 0.5427 0.5427 0.5427 0.5435 0.5450 0.5458 0.5458 0.5450 0.5435 0.5419 0.5411 0.5403 0.5403 0.5403 0.5403 0.5395 0.5403 0.5403 0.5403 0.5395 0.5395 0.5388 0.5380 0.5372 0.5380 0.5395 0.5411 0.5427 0.5427 0.5435 0.5442 0.5474 0.5497 0.5521 0.5536
0.6194 0.6202 0.6210 0.6226 0.6233 0.6233 0.6226 0.6218 0.6202 0.6194 0.6194 0.6202 0.6210 0.6210 0.6210 0.6202 0.6186 0.6179 0.6163 0.6147 0.6124 0.6100 0.6085 0.6069 0.6069 0.6085 0.6124 0.6147 0.6139 0.6124 0.6108 0.6100 0.6077 0.6069 0.6061 0.6061 0.6069 0.6077 0.6092 0.6108 0.6124 0.6132 0.6132 0.6139 0.6147 0.6147 0.6147 0.6155 0.6171 0.6194 0.6218 0.6233 0.6265 0.6288 0.6304 0.6312 0.6296 0.6288 0.6273 0.6249 0.6226 0.6210 0.6202 0.6194 0.6202 0.6202 0.6186 0.6155 0.6132 0.6108 0.6077 0.6045 0.6038 0.6014 0.5983 0.5959 0.5928 0.5912 0.5897 0.5889 0.5873 0.5857 0.5842 0.5826 0.5810 0.5779 0.5771 0.5771 0.5764 0.5756 0.5748 0.5740 0.5732 0.5732 0.5724 0.5724 0.5709 0.5693 0.5685 0.5677 0.5677 0.5662 0.5654 0.5654 0.5646 0.5638 0.5638 0.5638 0.5646 0.5646 0.5623 0.5599 0.5576 0.5560 0.5536 0.5513 0.5497 0.5489 0.5482 0.5466 0.5474 0.5489 0.5505 0.5505 0.5489 0.5482 0.5474 0.5474 0.5466 0.5458 0.5458 0.5458 0.5450 0.5450 0.5458 0.5458 0.5458 0.5466 0.5466 0.5474 0.5474 0.5482 0.5497 0.5513 0.5521 0.5513 0.5513 0.5521 0.5529 0.5544 0.5536 0.5521 0.5505 0.5497 0.5489 0.5482 0.5474 0.5466 0.5466 0.5466 0.5466 0.5466 0.5482 0.5489 0.5497 0.5513 0.5521 0.5529 0.5513 0.5513 0.5521 0.5521 0.5513 0.5497 0.5482 0.5474 0.5466 0.5466 0.5466 0.5466 0.5458 0.5450 0.5442 0.5442 0.5450 0.5450 0.5450 0.5458 0.5474 0.5482 0.5482 0.5482 0.5482 0.5482 0.5482 0.5482 0.5466 0.5450 0.5442 0.5427 0.5427 0.5427 0.5427 0.5435 0.5435 0.5427 0.5419 0.5419 0.5427 0.5442 0.5458 0.5466 0.5466 0.5458 0.5442 0.5427 0.5419 0.5403 0.5403 0.5395 0.5388 0.5380 0.5388 0.5388 0.5380 0.5372 0.5372 0.5356 0.5348 0.5341 0.5348 0.5364 0.5388 0.5395 0.5403 0.5411 0.5427 0.5450 0.5482 0.5505 0.5529
0.6186 0.6194 0.6202 0.6218 0.6226 0.6226 0.6218 0.6202 0.6186 0.6179 0.6186 0.6194 0.6194 0.6194 0.6194 0.6179 0.6171 0.6155 0.6147 0.6116 0.6092 0.6077 0.6069 0.6061 0.6053 0.6069 0.6092 0.6116 0.6108 0.6100 0.6092 0.6069 0.6053 0.6038 0.6030 0.6038 0.6053 0.6069 0.6092 0.6108 0.6116 0.6124 0.6124 0.6124 0.6124 0.6132 0.6147 0.6163 0.6186 0.6202 0.6218 0.6233 0.6249 0.6265 0.6288 0.6296 0.6296 0.6288 0.6280 0.6257 0.6233 0.6218 0.6202 0.6194 0.6186 0.6179 0.6163 0.6147 0.6116 0.6100 0.6077 0.6061 0.6038 0.6014 0.5991 0.5959 0.5936 0.5912 0.5904 0.5897 0.5881 0.5865 0.5850 0.5834 0.5818 0.5803 0.5795 0.5787 0.5779 0.5764 0.5756 0.5740 0.5740 0.5732 0.5732 0.5732 0.5724 0.5709 0.5701 0.5685 0.5670 0.5646 0.5638 0.5638 0.5630 0.5630 0.5638 0.5630 0.5638 0.5638 0.5630 0.5599 0.5583 0.5576 0.5560 0.5544 0.5521 0.5505 0.5482 0.5458 0.5466 0.5474 0.5482 0.5474 0.5458 0.5450 0.5458 0.5458 0.5450 0.5442 0.5442 0.5442 0.5442 0.5442 0.5450 0.5450 0.5450 0.5458 0.5458 0.5458 0.5466 0.5474 0.5482 0.5497 0.5505 0.5505 0.5505 0.5513 0.5521 0.5529 0.5521 0.5513 0.5505 0.5497 0.5489 0.5482 0.5466 0.5458 0.5458 0.5450 0.5450 0.5466 0.5474 0.5482 0.5489 0.5497 0.5497 0.5489 0.5489 0.5489 0.5489 0.5497 0.5497 0.5497 0.5482 0.5466 0.5458 0.5458 0.5458 0.5450 0.5442 0.5435 0.5435 0.5442 0.5442 0.5442 0.5442 0.5450 0.5474 0.5489 0.5497 0.5489 0.5497 0.5497 0.5505 0.5497 0.5482 0.5466 0.5450 0.5435 0.5419 0.5411 0.5419 0.5427 0.5427 0.5419 0.5403 0.5403 0.5419 0.5427 0.5442 0.5450 0.5450 0.5450 0.5435 0.5427 0.5419 0.5411 0.5395 0.5388 0.5372 0.5372 0.5380 0.5372 0.5364 0.5356 0.5348 0.5341 0.5341 0.5325 0.5325 0.5348 0.5364 0.5380 0.5395 0.5403 0.5419 0.5427 0.5450 0.5482 0.5497
0.6171 0.6179 0.6194 0.6202 0.6210 0.6218 0.6210 0.6186 0.6171 0.6163 0.6171 0.6171 0.6179 0.6179 0.6171 0.6155 0.6147 0.6139 0.6132 0.6100 0.6069 0.6061 0.6061 0.6045 0.6053 0.6061 0.6077 0.6085 0.6077 0.6077 0.6069 0.6045 0.6022 0.5991 0.5991 0.5998 0.6022 0.6053 0.6077 0.6085 0.6085 0.6092 0.6100 0.6108 0.6116 0.6139 0.6163 0.6186 0.6210 0.6226 0.6226 0.6241 0.6249 0.6265 0.6273 0.6288 0.6288 0.6296 0.6280 0.6265 0.6241 0.6233 0.6210 0.6186 0.6171 0.6147 0.6132 0.6116 0.6108 0.6085 0.6061 0.6045 0.6030 0.6014 0.5991 0.5959 0.5928 0.5904 0.5889 0.5889 0.5881 0.5865 0.5850 0.5834 0.5826 0.5818 0.5803 0.5795 0.5779 0.5764 0.5748 0.5740 0.5740 0.5740 0.5740 0.5748 0.5740 0.5724 0.5701 0.5677 0.5654 0.5638 0.5630 0.5630 0.5623 0.5630 0.5646 0.5646 0.5646 0.5630 0.5607 0.5591 0.5576 0.5576 0.5568 0.5560 0.5536 0.5505 0.5474 0.5458 0.5458 0.5458 0.5458 0.5450 0.5435 0.5435 0.5442 0.5442 0.5435 0.5427 0.5419 0.5419 0.5427 0.5427 0.5435 0.5435 0.5442 0.5442 0.5442 0.5442 0.5450 0.5458 0.5466 0.5474 0.5482 0.5497 0.5505 0.5505 0.5513 0.5521 0.5513 0.5505 0.5497 0.5497 0.5489 0.5482 0.5474 0.5458 0.5450 0.5442 0.5442 0.5458 0.5466 0.5474 0.5474 0.5474 0.5466 0.5474 0.5474 0.5474 0.5474 0.5482 0.5482 0.5474 0.5466 0.5458 0.5450 0.5442 0.5435 0.5427 0.5427 0.5427 0.5427 0.5427 0.5427 0.5427 0.5427 0.5450 0.5474 0.5489 0.5497 0.5497 0.5505 0.5513 0.5513 0.5505 0.5497 0.5482 0.5466 0.5442 0.5427 0.5419 0.5411 0.5403 0.5395 0.5388 0.5388 0.5388 0.5403 0.5411 0.5419 0.5419 0.5427 0.5427 0.5419 0.5419 0.5411 0.5395 0.5388 0.5372 0.5372 0.5372 0.5372 0.5364 0.5348 0.5341 0.5333 0.5333 0.5333 0.5333 0.5333 0.5348 0.5364 0.5364 0.5380 0.5395 0.5411 0.5419 0.5435 0.5442 0.5450
0.6163 0.6163 0.6171 0.6179 0.6186 0.6194 0.6186 0.6171 0.6155 0.6155 0.6155 0.6163 0.6163 0.6163 0.6155 0.6139 0.6116 0.6116 0.6116 0.6100 0.6077 0.6053 0.6038 0.6038 0.6053 0.6069 0.6077 0.6077 0.6077 0.6061 0.6038 0.6014 0.5991 0.5975 0.5967 0.5983 0.5998 0.6022 0.6045 0.6053 0.6053 0.6069 0.6085 0.6108 0.6124 0.6147 0.6179 0.6202 0.6218 0.6218 0.6233 0.6249 0.6265 0.6273 0.6280 0.6280 0.6288 0.6288 0.6280 0.6265 0.6257 0.6241 0.6210 0.6179 0.6163 0.6132 0.6108 0.6100 0.6085 0.6061 0.6038 0.6030 0.6014 0.6006 0.5983 0.5951 0.5920 0.5897 0.5881 0.5881 0.5881 0.5857 0.5842 0.5834 0.5826 0.5818 0.5810 0.5787 0.5771 0.5756 0.5740 0.5740 0.5740 0.5740 0.5748 0.5756 0.5748 0.5724 0.5701 0.5677 0.5654 0.5638 0.5638 0.5630 0.5630 0.5646 0.5662 0.5662 0.5654 0.5630 0.5607 0.5583 0.5568 0.5560 0.5552 0.5544 0.5536 0.5513 0.5489 0.5466 0.5450 0.5442 0.5442 0.5435 0.5427 0.5427 0.5427 0.5427 0.5419 0.5411 0.5411 0.5411 0.5403 0.5419 0.5427 0.5435 0.5427 0.5427 0.5419 0.5427 0.5435 0.5442 0.5450 0.5466 0.5474 0.5482 0.5489 0.5489 0.5505 0.5505 0.5497 0.5497 0.5497 0.5489 0.5482 0.5482 0.5466 0.5450 0.5442 0.5442 0.5442 0.5442 0.5450 0.5450 0.5450 0.5442 0.5442 0.5450 0.5458 0.5458 0.5466 0.5466 0.5466 0.5458 0.5450 0.5450 0.5442 0.5435 0.5427 0.5419 0.5411 0.5419 0.5419 0.5419 0.5419 0.5419 0.5427 0.5442 0.5458 0.5482 0.5489 0.5489 0.5505 0.5513 0.5513 0.5505 0.5497 0.5489 0.5474 0.5458 0.5442 0.5419 0.5411 0.5395 0.5380 0.5380 0.5380 0.5380 0.5388 0.5395 0.5403 0.5411 0.5411 0.5403 0.5395 0.5395 0.5388 0.5380 0.5372 0.5364 0.5364 0.5356 0.5356 0.5348 0.5341 0.5325 0.5325 0.5325 0.5325 0.5333 0.5341 0.5348 0.5348 0.5348 0.5364 0.5380 0.5395 0.5403 0.5403 0.5411 0.5419
0.6147 0.6147 0.6147 0.6155 0.6171 0.6179 0.6179 0.6171 0.6163 0.6155 0.6155 0.6163 0.6163 0.6155 0.6147 0.6124 0.6108 0.6100 0.6100 0.6092 0.6069 0.6045 0.6022 0.6014 0.6030 0.6053 0.6061 0.6061 0.6045 0.6030 0.6006 0.5983 0.5967 0.5959 0.5967 0.5975 0.5991 0.6014 0.6030 0.6045 0.6053 0.6069 0.6092 0.6116 0.6124 0.6139 0.6171 0.6194 0.6210 0.6226 0.6249 0.6273 0.6288 0.6296 0.6296 0.6296 0.6296 0.6288 0.6273 0.6265 0.6249 0.6218 0.6194 0.6179 0.6155 0.6124 0.6100 0.6077 0.6061 0.6038 0.6030 0.6022 0.6006 0.5991 0.5967 0.5944 0.5920 0.5897 0.5889 0.5889 0.5881 0.5850 0.5826 0.5818 0.5826 0.5818 0.5810 0.5795 0.5771 0.5756 0.5740 0.5732 0.5732 0.5732 0.5732 0.5740 0.5732 0.5709 0.5685 0.5670 0.5654 0.5630 0.5623 0.5630 0.5638 0.5646 0.5654 0.5662 0.5662 0.5646 0.5615 0.5591 0.5576 0.5552 0.5544 0.5536 0.5529 0.5521 0.5497 0.5474 0.5458 0.5442 0.5435 0.5435 0.5435 0.5427 0.5419 0.5411 0.5403 0.5403 0.5411 0.5403 0.5403 0.5411 0.5427 0.5435 0.5427 0.5419 0.5419 0.5427 0.5435 0.5442 0.5450 0.5466 0.5474 0.5474 0.5474 0.5474 0.5489 0.5489 0.5489 0.5489 0.5489 0.5489 0.5482 0.5482 0.5474 0.5458 0.5442 0.5435 0.5435 0.5427 0.5427 0.5427 0.5427 0.5427 0.5427 0.5435 0.5450 0.5458 0.5458 0.5458 0.5458 0.5450 0.5442 0.5442 0.5442 0.5435 0.5427 0.5419 0.5411 0.5411 0.5411 0.5411 0.5411 0.5411 0.5419 0.5427 0.5442 0.5466 0.5474 0.5482 0.5497 0.5505 0.5505 0.5505 0.5497 0.5497 0.5482 0.5474 0.5450 0.5427 0.5411 0.5395 0.5380 0.5380 0.5372 0.5372 0.5372 0.5380 0.5388 0.5395 0.5388 0.5380 0.5380 0.5380 0.5372 0.5364 0.5356 0.5356 0.5364 0.5364 0.5356 0.5348 0.5333 0.5333 0.5325 0.5325 0.5325 0.5333 0.5333 0.5341 0.5341 0.5341 0.5356 0.5372 0.5380 0.5372 0.5372 0.5372 0.5395
0.6139 0.6139 0.6147 0.6155 0.6163 0.6179 0.6186 0.6179 0.6171 0.6163 0.6155 0.6155 0.6147 0.6132 0.6124 0.6100 0.6085 0.6077 0.6077 0.6069 0.6061 0.6030 0.5998 0.5991 0.6006 0.6022 0.6030 0.6022 0.6014 0.5998 0.5983 0.5967 0.5967 0.5967 0.5975 0.5983 0.5991 0.6014 0.6045 0.6053 0.6069 0.6092 0.6116 0.6132 0.6139 0.6147 0.6163 0.6186 0.6202 0.6233 0.6265 0.6296 0.6319 0.6312 0.6304 0.6304 0.6296 0.6288 0.6273 0.6249 0.6226 0.6202 0.6179 0.6147 0.6132 0.6116 0.6100 0.6069 0.6038 0.6014 0.6006 0.5998 0.5991 0.5975 0.5967 0.5951 0.5928 0.5912 0.5897 0.5881 0.5865 0.5842 0.5834 0.5842 0.5842 0.5834 0.5818 0.5795 0.5779 0.5764 0.5740 0.5724 0.5717 0.5709 0.5709 0.5709 0.5701 0.5685 0.5670 0.5654 0.5630 0.5623 0.5607 0.5607 0.5607 0.5615 0.5630 0.5646 0.5638 0.5623 0.5607 0.5599 0.5583 0.5560 0.5536 0.5529 0.5521 0.5513 0.5497 0.5474 0.5458 0.5450 0.5442 0.5435 0.5427 0.5419 0.5411 0.5403 0.5403 0.5403 0.5403 0.5411 0.5403 0.5411 0.5419 0.5427 0.5435 0.5435 0.5435 0.5435 0.5435 0.5442 0.5450 0.5458 0.5458 0.5458 0.5458 0.5466 0.5466 0.5466 0.5474 0.5482 0.5489 0.5489 0.5489 0.5482 0.5474 0.5458 0.5435 0.5419 0.5411 0.5403 0.5403 0.5403 0.5403 0.5411 0.5419 0.5435 0.5442 0.5442 0.5450 0.5458 0.5458 0.5458 0.5450 0.5442 0.5442 0.5435 0.5427 0.5411 0.5403 0.5395 0.5403 0.5395 0.5403 0.5403 0.5411 0.5419 0.5427 0.5435 0.5450 0.5466 0.5482 0.5489 0.5497 0.5505 0.5497 0.5482 0.5474 0.5466 0.5450 0.5435 0.5411 0.5395 0.5395 0.5380 0.5372 0.5364 0.5364 0.5372 0.5380 0.5372 0.5372 0.5364 0.5372 0.5372 0.5356 0.5341 0.5333 0.5341 0.5341 0.5348 0.5341 0.5341 0.5341 0.5333 0.5325 0.5317 0.5317 0.5317 0.5325 0.5333 0.5333 0.5333 0.5348 0.5356 0.5348 0.5348 0.5348 0.5348 0.5356
0.6132 0.6147 0.6155 0.6155 0.6163 0.6171 0.6179 0.6179 0.6163 0.6155 0.6155 0.6147 0.6139 0.6116 0.6100 0.6077 0.6061 0.6061 0.6061 0.6061 0.6045 0.6022 0.5991 0.5983 0.5983 0.5998 0.6006 0.6006 0.5998 0.5983 0.5967 0.5959 0.5959 0.5967 0.5983 0.5998 0.6014 0.6030 0.6053 0.6069 0.6085 0.6100 0.6132 0.6163 0.6186 0.6194 0.6194 0.6202 0.6218 0.6241 0.6265 0.6296 0.6312 0.6312 0.6304 0.6296 0.6288 0.6280 0.6265 0.6233 0.6202 0.6186 0.6155 0.6132 0.6116 0.6100 0.6085 0.6053 0.6014 0.5991 0.5975 0.5975 0.5967 0.5967 0.5959 0.5951 0.5928 0.5904 0.5889 0.5865 0.5865 0.5857 0.5857 0.5850 0.5850 0.5834 0.5810 0.5795 0.5779 0.5764 0.5740 0.5724 0.5709 0.5685 0.5677 0.5677 0.5677 0.5670 0.5654 0.5630 0.5615 0.5607 0.5599 0.5591 0.5599 0.5599 0.5607 0.5615 0.5615 0.5599 0.5591 0.5583 0.5576 0.5560 0.5536 0.5521 0.5513 0.5497 0.5482 0.5458 0.5450 0.5442 0.5435 0.5435 0.5427 0.5419 0.5419 0.5419 0.5411 0.5403 0.5403 0.5403 0.5411 0.5411 0.5419 0.5435 0.5442 0.5450 0.5442 0.5435 0.5435 0.5435 0.5442 0.5442 0.5442 0.5442 0.5442 0.5450 0.5458 0.5466 0.5466 0.5474 0.5474 0.5474 0.5466 0.5458 0.5458 0.5442 0.5419 0.5395 0.5395 0.5388 0.5388 0.5388 0.5395 0.5403 0.5419 0.5435 0.5435 0.5442 0.5450 0.5458 0.5458 0.5458 0.5458 0.5442 0.5435 0.5427 0.5411 0.5403 0.5395 0.5388 0.5388 0.5388 0.5388 0.5395 0.5403 0.5411 0.5419 0.5427 0.5435 0.5450 0.5458 0.5474 0.5489 0.5489 0.5466 0.5458 0.5450 0.5435 0.5435 0.5419 0.5403 0.5395 0.5395 0.5388 0.5372 0.5364 0.5364 0.5372 0.5364 0.5364 0.5356 0.5356 0.5364 0.5364 0.5348 0.5333 0.5325 0.5325 0.5325 0.5325 0.5325 0.5333 0.5333 0.5333 0.5325 0.5309 0.5301 0.5301 0.5309 0.5317 0.5325 0.5333 0.5333 0.5341 0.5348 0.5348 0.5348 0.5348 0.5341
0.6139 0.6139 0.6155 0.6163 0.6171 0.6171 0.6179 0.6179 0.6163 0.6155 0.6155 0.6155 0.6139 0.6116 0.6092 0.6061 0.6053 0.6053 0.6045 0.6038 0.6030 0.6014 0.5991 0.5975 0.5991 0.5991 0.5998 0.5998 0.5983 0.5967 0.5944 0.5936 0.5936 0.5944 0.5967 0.5991 0.6014 0.6038 0.6061 0.6085 0.6100 0.6116 0.6147 0.6186 0.6210 0.6233 0.6226 0.6233 0.6249 0.6257 0.6265 0.6288 0.6304 0.6312 0.6304 0.6288 0.6280 0.6273 0.6249 0.6226 0.6202 0.6179 0.6155 0.6124 0.6100 0.6085 0.6053 0.6030 0.5998 0.5983 0.5975 0.5967 0.5951 0.5951 0.5951 0.5944 0.5920 0.5897 0.5873 0.5865 0.5865 0.5857 0.5857 0.5850 0.5842 0.5826 0.5810 0.5803 0.5795 0.5771 0.5748 0.5724 0.5693 0.5670 0.5662 0.5662 0.5670 0.5670 0.5638 0.5615 0.5607 0.5607 0.5599 0.5583 0.5583 0.5583 0.5583 0.5583 0.5591 0.5583 0.5568 0.5560 0.5552 0.5544 0.5529 0.5513 0.5505 0.5489 0.5474 0.5450 0.5442 0.5442 0.5442 0.5442 0.5435 0.5435 0.5427 0.5419 0.5411 0.5403 0.5403 0.5403 0.5411 0.5419 0.5427 0.5442 0.5450 0.5458 0.5450 0.5435 0.5427 0.5427 0.5435 0.5435 0.5435 0.5427 0.5435 0.5442 0.5450 0.5458 0.5458 0.5458 0.5450 0.5435 0.5427 0.5419 0.5419 0.5411 0.5403 0.5395 0.5395 0.5388 0.5388 0.5388 0.5388 0.5395 0.5411 0.5419 0.5435 0.5442 0.5442 0.5442 0.5435 0.5442 0.5450 0.5450 0.5442 0.5427 0.5411 0.5395 0.5395 0.5395 0.5388 0.5388 0.5388 0.5388 0.5395 0.5403 0.5419 0.5427 0.5427 0.5435 0.5442 0.5458 0.5466 0.5458 0.5450 0.5442 0.5427 0.5419 0.5411 0.5403 0.5395 0.5395 0.5395 0.5380 0.5372 0.5364 0.5364 0.5356 0.5356 0.5348 0.5341 0.5341 0.5348 0.5356 0.5348 0.5333 0.5325 0.5317 0.5317 0.5317 0.5317 0.5325 0.5325 0.5325 0.5317 0.5309 0.5301 0.5301 0.5301 0.5309 0.5317 0.5325 0.5317 0.5325 0.5333 0.5348 0.5348 0.5341 0.5341
0.6139 0.6147 0.6171 0.6179 0.6179 0.6171 0.6186 0.6194 0.6186 0.6171 0.6163 0.6155 0.6155 0.6139 0.6108 0.6069 0.6053 0.6053 0.6038 0.6030 0.6014 0.5998 0.5975 0.5967 0.5967 0.5975 0.5967 0.5975 0.5967 0.5951 0.5928 0.5920 0.5928 0.5936 0.5967 0.5991 0.6006 0.6038 0.6061 0.6085 0.6108 0.6132 0.6171 0.6202 0.6233 0.6257 0.6265 0.6273 0.6280 0.6273 0.6273 0.6288 0.6304 0.6304 0.6296 0.6288 0.6273 0.6257 0.6233 0.6210 0.6186 0.6163 0.6132 0.6108 0.6085 0.6053 0.6030 0.6006 0.5998 0.5983 0.5967 0.5959 0.5944 0.5928 0.5920 0.5920 0.5912 0.5889 0.5865 0.5850 0.5850 0.5842 0.5842 0.5834 0.5826 0.5818 0.5818 0.5810 0.5795 0.5787 0.5756 0.5717 0.5693 0.5677 0.5670 0.5670 0.5670 0.5654 0.5630 0.5615 0.5607 0.5607 0.5599 0.5583 0.5576 0.5568 0.5568 0.5568 0.5568 0.5560 0.5552 0.5536 0.5521 0.5513 0.5513 0.5505 0.5497 0.5482 0.5474 0.5458 0.5458 0.5450 0.5450 0.5450 0.5450 0.5442 0.5427 0.5411 0.5403 0.5395 0.5395 0.5395 0.5403 0.5411 0.5419 0.5427 0.5442 0.5442 0.5435 0.5435 0.5427 0.5427 0.5435 0.5435 0.5427 0.5427 0.5427 0.5435 0.5450 0.5450 0.5450 0.5442 0.5435 0.5419 0.5403 0.5403 0.5403 0.5395 0.5395 0.5395 0.5395 0.5388 0.5388 0.5388 0.5380 0.5388 0.5395 0.5403 0.5419 0.5427 0.5435 0.5419 0.5411 0.5427 0.5435 0.5442 0.5442 0.5427 0.5411 0.5395 0.5403 0.5403 0.5395 0.5395 0.5388 0.5388 0.5380 0.5388 0.5403 0.5419 0.5419 0.5419 0.5427 0.5427 0.5435 0.5435 0.5442 0.5435 0.5419 0.5403 0.5395 0.5388 0.5388 0.5388 0.5380 0.5372 0.5364 0.5364 0.5356 0.5348 0.5333 0.5333 0.5325 0.5325 0.5333 0.5341 0.5333 0.5333 0.5325 0.5317 0.5309 0.5309 0.5309 0.5317 0.5309 0.5309 0.5301 0.5301 0.5301 0.5301 0.5301 0.5309 0.5317 0.5309 0.5309 0.5309 0.5317 0.5325 0.5325 0.5325 0.5333
0.6163 0.6163 0.6179 0.6194 0.6186 0.6179 0.6179 0.6202 0.6210 0.6202 0.6179 0.6171 0.6171 0.6163 0.6132 0.6092 0.6069 0.6061 0.6045 0.6030 0.6006 0.5991 0.5967 0.5951 0.5936 0.5928 0.5936 0.5951 0.5951 0.5936 0.5920 0.5920 0.5928 0.5944 0.5967 0.5983 0.5998 0.6022 0.6053 0.6085 0.6108 0.6132 0.6171 0.6210 0.6241 0.6265 0.6280 0.6288 0.6296 0.6280 0.6273 0.6280 0.6296 0.6304 0.6304 0.6288 0.6257 0.6233 0.6218 0.6194 0.6171 0.6147 0.6124 0.6100 0.6069 0.6045 0.6022 0.5998 0.5983 0.5959 0.5951 0.5944 0.5936 0.5912 0.5904 0.5897 0.5897 0.5873 0.5850 0.5834 0.5826 0.5818 0.5818 0.5810 0.5810 0.5810 0.5810 0.5810 0.5787 0.5771 0.5748 0.5717 0.5693 0.5685 0.5685 0.5677 0.5670 0.5654 0.5646 0.5630 0.5623 0.5623 0.5615 0.5607 0.5583 0.5576 0.5568 0.5560 0.5552 0.5552 0.5536 0.5521 0.5497 0.5489 0.5489 0.5497 0.5497 0.5489 0.5489 0.5482 0.5466 0.5458 0.5458 0.5458 0.5466 0.5458 0.5442 0.5411 0.5395 0.5388 0.5380 0.5395 0.5403 0.5411 0.5411 0.5427 0.5435 0.5435 0.5435 0.5435 0.5442 0.5442 0.5450 0.5442 0.5442 0.5435 0.5435 0.5435 0.5442 0.5442 0.5435 0.5435 0.5427 0.5411 0.5395 0.5395 0.5395 0.5395 0.5395 0.5395 0.5395 0.5388 0.5380 0.5372 0.5364 0.5372 0.5380 0.5380 0.5388 0.5403 0.5411 0.5403 0.5403 0.5411 0.5411 0.5419 0.5419 0.5419 0.5411 0.5403 0.5403 0.5395 0.5388 0.5380 0.5372 0.5372 0.5372 0.5380 0.5388 0.5395 0.5403 0.5411 0.5411 0.5411 0.5419 0.5427 0.5427 0.5419 0.5411 0.5403 0.5395 0.5380 0.5380 0.5380 0.5372 0.5364 0.5356 0.5356 0.5348 0.5333 0.5333 0.5325 0.5325 0.5317 0.5325 0.5333 0.5333 0.5325 0.5317 0.5309 0.5309 0.5301 0.5309 0.5309 0.5301 0.5294 0.5294 0.5294 0.5301 0.5301 0.5301 0.5301 0.5301 0.5301 0.5294 0.5294 0.5294 0.5301 0.5301 0.5301 0.5317
0.6171 0.6179 0.6186 0.6194 0.6194 0.6194 0.6202 0.6218 0.6233 0.6233 0.6218 0.6202 0.6194 0.6179 0.6163 0.6124 0.6100 0.6085 0.6061 0.6038 0.6014 0.5991 0.5959 0.5936 0.5920 0.5912 0.5920 0.5920 0.5928 0.5912 0.5904 0.5912 0.5920 0.5936 0.5951 0.5959 0.5991 0.6014 0.6045 0.6077 0.6108 0.6139 0.6163 0.6194 0.6226 0.6265 0.6296 0.6296 0.6296 0.6280 0.6257 0.6265 0.6280 0.6288 0.6288 0.6265 0.6226 0.6210 0.6202 0.6179 0.6155 0.6124 0.6108 0.6092 0.6069 0.6045 0.6022 0.5991 0.5967 0.5951 0.5936 0.5936 0.5912 0.5897 0.5889 0.5881 0.5881 0.5857 0.5842 0.5826 0.5810 0.5803 0.5795 0.5795 0.5795 0.5787 0.5787 0.5787 0.5779 0.5748 0.5717 0.5693 0.5685 0.5693 0.5685 0.5685 0.5677 0.5677 0.5670 0.5662 0.5654 0.5646 0.5638 0.5623 0.5607 0.5583 0.5568 0.5560 0.5552 0.5544 0.5536 0.5529 0.5513 0.5497 0.5489 0.5489 0.5489 0.5489 0.5489 0.5482 0.5474 0.5466 0.5458 0.5458 0.5458 0.5458 0.5442 0.5419 0.5403 0.5388 0.5388 0.5388 0.5395 0.5395 0.5403 0.5411 0.5419 0.5419 0.5427 0.5435 0.5442 0.5450 0.5450 0.5450 0.5442 0.5435 0.5435 0.5435 0.5435 0.5427 0.5427 0.5427 0.5419 0.5403 0.5395 0.5388 0.5388 0.5388 0.5395 0.5395 0.5388 0.5380 0.5372 0.5364 0.5348 0.5341 0.5341 0.5348 0.5356 0.5372 0.5380 0.5388 0.5395 0.5403 0.5403 0.5403 0.5403 0.5403 0.5411 0.5403 0.5395 0.5380 0.5364 0.5364 0.5356 0.5364 0.5364 0.5372 0.5380 0.5388 0.5395 0.5403 0.5403 0.5403 0.5411 0.5411 0.5411 0.5411 0.5411 0.5403 0.5395 0.5388 0.5372 0.5372 0.5364 0.5364 0.5356 0.5348 0.5333 0.5333 0.5325 0.5333 0.5325 0.5317 0.5317 0.5317 0.5317 0.5317 0.5309 0.5309 0.5301 0.5309 0.5309 0.5309 0.5301 0.5294 0.5294 0.5294 0.5294 0.5294 0.5294 0.5294 0.5294 0.5286 0.5270 0.5270 0.5270 0.5278 0.5286 0.5286 0.5309
0.6186 0.6186 0.6194 0.6202 0.6210 0.6233 0.6241 0.6249 0.6249 0.6257 0.6249 0.6226 0.6202 0.6186 0.6179 0.6147 0.6124 0.6100 0.6069 0.6045 0.6022 0.5991 0.5959 0.5928 0.5912 0.5912 0.5912 0.5912 0.5912 0.5897 0.5889 0.5897 0.5912 0.5920 0.5936 0.5951 0.5975 0.6006 0.6038 0.6061 0.6092 0.6124 0.6155 0.6186 0.6218 0.6265 0.6288 0.6288 0.6288 0.6273 0.6257 0.6249 0.6249 0.6249 0.6249 0.6226 0.6194 0.6171 0.6163 0.6155 0.6132 0.6100 0.6085 0.6069 0.6053 0.6038 0.6014 0.5983 0.5959 0.5944 0.5928 0.5920 0.5897 0.5881 0.5865 0.5865 0.5857 0.5850 0.5834 0.5826 0.5803 0.5787 0.5779 0.5779 0.5779 0.5771 0.5771 0.5764 0.5756 0.5732 0.5701 0.5685 0.5677 0.5670 0.5677 0.5677 0.5677 0.5677 0.5670 0.5670 0.5662 0.5654 0.5630 0.5623 0.5607 0.5583 0.5576 0.5568 0.5560 0.5560 0.5552 0.5552 0.5529 0.5513 0.5497 0.5474 0.5466 0.5466 0.5474 0.5474 0.5466 0.5458 0.5458 0.5450 0.5450 0.5442 0.5435 0.5419 0.5403 0.5395 0.5388 0.5380 0.5380 0.5388 0.5388 0.5388 0.5395 0.5403 0.5411 0.5427 0.5442 0.5442 0.5442 0.5435 0.5435 0.5427 0.5427 0.5419 0.5419 0.5411 0.5403 0.5403 0.5403 0.5395 0.5388 0.5380 0.5380 0.5388 0.5388 0.5395 0.5395 0.5380 0.5372 0.5364 0.5348 0.5325 0.5317 0.5317 0.5333 0.5348 0.5356 0.5364 0.5388 0.5411 0.5411 0.5403 0.5395 0.5395 0.5395 0.5388 0.5380 0.5372 0.5364 0.5356 0.5356 0.5356 0.5364 0.5380 0.5388 0.5388 0.5388 0.5395 0.5395 0.5395 0.5403 0.5403 0.5403 0.5403 0.5403 0.5395 0.5388 0.5380 0.5372 0.5356 0.5356 0.5356 0.5348 0.5333 0.5317 0.5317 0.5325 0.5333 0.5325 0.5317 0.5309 0.5309 0.5309 0.5309 0.5309 0.5301 0.5301 0.5301 0.5301 0.5301 0.5301 0.5301 0.5286 0.5278 0.5286 0.5286 0.5286 0.5286 0.5278 0.5270 0.5262 0.5262 0.5262 0.5262 0.5270 0.5278 0.5294
0.6210 0.6210 0.6210 0.6226 0.6241 0.6257 0.6273 0.6265 0.6257 0.6241 0.6233 0.6218 0.6202 0.6179 0.6163 0.6139 0.6116 0.6092 0.6069 0.6045 0.6022 0.5983 0.5944 0.5920 0.5912 0.5904 0.5904 0.5904 0.5897 0.5881 0.5881 0.5897 0.5904 0.5904 0.5920 0.5944 0.5967 0.5991 0.6014 0.6038 0.6069 0.6092 0.6124 0.6163 0.6194 0.6241 0.6257 0.6265 0.6265 0.6257 0.6233 0.6218 0.6210 0.6210 0.6210 0.6194 0.6163 0.6147 0.6139 0.6124 0.6100 0.6085 0.6069 0.6045 0.6030 0.6022 0.5998 0.5983 0.5967 0.5951 0.5936 0.5912 0.5897 0.5873 0.5857 0.5850 0.5834 0.5826 0.5818 0.5810 0.5795 0.5779 0.5771 0.5771 0.5764 0.5756 0.5756 0.5748 0.5732 0.5709 0.5693 0.5677 0.5662 0.5662 0.5662 0.5662 0.5654 0.5662 0.5654 0.5654 0.5646 0.5638 0.5623 0.5623 0.5607 0.5599 0.5583 0.5576 0.5568 0.5568 0.5560 0.5552 0.5544 0.5513 0.5489 0.5466 0.5458 0.5458 0.5466 0.5466 0.5458 0.5450 0.5450 0.5450 0.5442 0.5427 0.5419 0.5411 0.5395 0.5380 0.5372 0.5372 0.5372 0.5372 0.5372 0.5380 0.5388 0.5395 0.5403 0.5427 0.5442 0.5442 0.5435 0.5427 0.5419 0.5411 0.5403 0.5403 0.5395 0.5395 0.5388 0.5388 0.5388 0.5380 0.5372 0.5372 0.5380 0.5380 0.5388 0.5395 0.5388 0.5380 0.5372 0.5356 0.5348 0.5333 0.5317 0.5317 0.5325 0.5325 0.5333 0.5356 0.5380 0.5395 0.5395 0.5388 0.5388 0.5380 0.5372 0.5372 0.5372 0.5364 0.5364 0.5356 0.5356 0.5356 0.5356 0.5372 0.5372 0.5372 0.5372 0.5372 0.5380 0.5388 0.5395 0.5395 0.5395 0.5395 0.5395 0.5388 0.5380 0.5372 0.5356 0.5348 0.5341 0.5341 0.5341 0.5325 0.5317 0.5309 0.5317 0.5325 0.5325 0.5309 0.5301 0.5301 0.5301 0.5301 0.5301 0.5301 0.5294 0.5294 0.5294 0.5294 0.5301 0.5294 0.5278 0.5270 0.5270 0.5278 0.5278 0.5278 0.5278 0.5270 0.5262 0.5262 0.5255 0.5262 0.5262 0.5262 0.5270
0.6226 0.6226 0.6233 0.6241 0.6249 0.6257 0.6257 0.6257 0.6233 0.6226 0.6210 0.6210 0.6179 0.6163 0.6147 0.6124 0.6100 0.6077 0.6053 0.6038 0.6014 0.5983 0.5951 0.5928 0.5920 0.5904 0.5889 0.5881 0.5873 0.5873 0.5873 0.5881 0.5897 0.5904 0.5912 0.5944 0.5967 0.5991 0.6014 0.6038 0.6053 0.6077 0.6100 0.6132 0.6171 0.6210 0.6226 0.6233 0.6233 0.6226 0.6218 0.6210 0.6186 0.6171 0.6171 0.6163 0.6139 0.6132 0.6108 0.6085 0.6069 0.6061 0.6045 0.6022 0.6006 0.5991 0.5983 0.5983 0.5975 0.5951 0.5928 0.5912 0.5897 0.5881 0.5865 0.5842 0.5826 0.5818 0.5803 0.5795 0.5795 0.5787 0.5771 0.5764 0.5748 0.5740 0.5740 0.5732 0.5717 0.5693 0.5677 0.5670 0.5670 0.5662 0.5662 0.5646 0.5638 0.5630 0.5630 0.5638 0.5630 0.5623 0.5615 0.5607 0.5599 0.5591 0.5583 0.5576 0.5568 0.5568 0.5560 0.5544 0.5529 0.5505 0.5482 0.5466 0.5458 0.5450 0.5458 0.5458 0.5450 0.5450 0.5450 0.5442 0.5435 0.5419 0.5419 0.5403 0.5395 0.5388 0.5380 0.5380 0.5380 0.5380 0.5380 0.5380 0.5380 0.5388 0.5403 0.5435 0.5450 0.5442 0.5435 0.5419 0.5403 0.5395 0.5388 0.5380 0.5380 0.5380 0.5380 0.5388 0.5380 0.5380 0.5372 0.5372 0.5372 0.5372 0.5380 0.5380 0.5380 0.5364 0.5356 0.5341 0.5333 0.5325 0.5317 0.5317 0.5309 0.5309 0.5317 0.5341 0.5356 0.5364 0.5372 0.5372 0.5372 0.5364 0.5364 0.5364 0.5364 0.5364 0.5356 0.5348 0.5348 0.5341 0.5341 0.5356 0.5364 0.5364 0.5372 0.5372 0.5372 0.5388 0.5395 0.5395 0.5388 0.5395 0.5380 0.5372 0.5364 0.5356 0.5348 0.5341 0.5341 0.5341 0.5333 0.5325 0.5317 0.5309 0.5309 0.5317 0.5317 0.5309 0.5301 0.5301 0.5294 0.5294 0.5294 0.5294 0.5294 0.5286 0.5286 0.5294 0.5294 0.5294 0.5278 0.5270 0.5278 0.5278 0.5278 0.5270 0.5270 0.5262 0.5262 0.5262 0.5262 0.5262 0.5262 0.5262 0.5262
0.6233 0.6233 0.6241 0.6241 0.6241 0.6249 0.6241 0.6233 0.6218 0.6202 0.6186 0.6163 0.6147 0.6132 0.6116 0.6092 0.6077 0.6053 0.6030 0.6022 0.6006 0.5983 0.5959 0.5936 0.5920 0.5904 0.5881 0.5857 0.5857 0.5865 0.5865 0.5873 0.5889 0.5897 0.5928 0.5944 0.5967 0.5991 0.6014 0.6030 0.6053 0.6069 0.6077 0.6108 0.6147 0.6179 0.6194 0.6202 0.6202 0.6194 0.6194 0.6179 0.6147 0.6124 0.6132 0.6124 0.6116 0.6100 0.6085 0.6061 0.6045 0.6045 0.6038 0.6006 0.5975 0.5967 0.5975 0.5975 0.5967 0.5951 0.5936 0.5912 0.5904 0.5897 0.5881 0.5865 0.5842 0.5826 0.5803 0.5787 0.5787 0.5787 0.5771 0.5756 0.5724 0.5709 0.5709 0.5701 0.5685 0.5670 0.5662 0.5662 0.5662 0.5654 0.5646 0.5630 0.5615 0.5607 0.5607 0.5607 0.5599 0.5591 0.5591 0.5591 0.5583 0.5583 0.5583 0.5576 0.5560 0.5552 0.5552 0.5529 0.5513 0.5489 0.5474 0.5466 0.5458 0.5450 0.5450 0.5450 0.5442 0.5442 0.5442 0.5435 0.5435 0.5427 0.5419 0.5411 0.5403 0.5403 0.5395 0.5388 0.5380 0.5380 0.5380 0.5388 0.5380 0.5388 0.5403 0.5435 0.5442 0.5435 0.5419 0.5403 0.5388 0.5380 0.5372 0.5372 0.5372 0.5372 0.5380 0.5380 0.5380 0.5380 0.5380 0.5372 0.5364 0.5364 0.5364 0.5364 0.5364 0.5356 0.5341 0.5325 0.5317 0.5317 0.5309 0.5309 0.5309 0.5309 0.5309 0.5325 0.5341 0.5356 0.5364 0.5364 0.5364 0.5364 0.5364 0.5356 0.5364 0.5356 0.5348 0.5341 0.5341 0.5333 0.5333 0.5333 0.5341 0.5356 0.5364 0.5372 0.5380 0.5380 0.5380 0.5380 0.5388 0.5380 0.5364 0.5356 0.5356 0.5356 0.5356 0.5348 0.5341 0.5333 0.5333 0.5325 0.5309 0.5301 0.5301 0.5301 0.5309 0.5309 0.5309 0.5294 0.5286 0.5278 0.5278 0.5278 0.5278 0.5278 0.5270 0.5278 0.5294 0.5294 0.5278 0.5278 0.5278 0.5286 0.5278 0.5270 0.5262 0.5255 0.5255 0.5255 0.5255 0.5262 0.5262 0.5262 0.5255
0.6233 0.6226 0.6233 0.6226 0.6226 0.6218 0.6218 0.6202 0.6186 0.6171 0.6139 0.6124 0.6116 0.6092 0.6077 0.6061 0.6045 0.6022 0.5998 0.5991 0.5983 0.5983 0.5967 0.5944 0.5920 0.5889 0.5865 0.5857 0.5850 0.5857 0.5857 0.5865 0.5873 0.5897 0.5920 0.5936 0.5951 0.5975 0.5998 0.6014 0.6030 0.6045 0.6053 0.6077 0.6116 0.6147 0.6163 0.6171 0.6171 0.6163 0.6155 0.6132 0.6108 0.6092 0.6085 0.6085 0.6077 0.6061 0.6045 0.6022 0.6014 0.6014 0.5998 0.5975 0.5959 0.5959 0.5959 0.5967 0.5967 0.5959 0.5959 0.5936 0.5920 0.5920 0.5912 0.5889 0.5865 0.5834 0.5810 0.5795 0.5787 0.5779 0.5764 0.5740 0.5717 0.5701 0.5685 0.5677 0.5662 0.5646 0.5638 0.5646 0.5638 0.5638 0.5630 0.5607 0.5599 0.5591 0.5583 0.5583 0.5576 0.5568 0.5560 0.5560 0.5568 0.5576 0.5576 0.5568 0.5560 0.5552 0.5552 0.5536 0.5513 0.5489 0.5474 0.5466 0.5458 0.5458 0.5458 0.5450 0.5442 0.5435 0.5435 0.5442 0.5442 0.5435 0.5427 0.5419 0.5419 0.5411 0.5403 0.5388 0.5372 0.5372 0.5372 0.5372 0.5380 0.5380 0.5395 0.5411 0.5419 0.5419 0.5419 0.5403 0.5388 0.5380 0.5372 0.5372 0.5364 0.5364 0.5364 0.5372 0.5372 0.5380 0.5380 0.5372 0.5364 0.5356 0.5348 0.5348 0.5348 0.5341 0.5333 0.5325 0.5317 0.5309 0.5309 0.5301 0.5301 0.5301 0.5309 0.5317 0.5333 0.5348 0.5364 0.5364 0.5364 0.5348 0.5348 0.5348 0.5356 0.5348 0.5348 0.5341 0.5333 0.5333 0.5325 0.5325 0.5325 0.5341 0.5356 0.5364 0.5364 0.5372 0.5364 0.5364 0.5372 0.5364 0.5356 0.5356 0.5356 0.5356 0.5348 0.5348 0.5341 0.5333 0.5325 0.5309 0.5309 0.5301 0.5301 0.5301 0.5301 0.5301 0.5294 0.5294 0.5278 0.5270 0.5270 0.5270 0.5270 0.5262 0.5262 0.5270 0.5286 0.5286 0.5286 0.5278 0.5278 0.5286 0.5278 0.5270 0.5262 0.5255 0.5247 0.5247 0.5255 0.5255 0.5255 0.5255 0.5247
0.6210 0.6210 0.6210 0.6202 0.6194 0.6186 0.6179 0.6171 0.6155 0.6132 0.6108 0.6100 0.6085 0.6061 0.6038 0.6022 0.6006 0.5983 0.5967 0.5959 0.5951 0.5951 0.5951 0.5936 0.5912 0.5889 0.5865 0.5857 0.5842 0.5834 0.5842 0.5850 0.5850 0.5873 0.5889 0.5904 0.5928 0.5951 0.5983 0.5998 0.6006 0.6022 0.6038 0.6061 0.6085 0.6116 0.6132 0.6132 0.6139 0.6132 0.6116 0.6100 0.6077 0.6061 0.6053 0.6038 0.6030 0.6022 0.5998 0.5998 0.5991 0.5983 0.5975 0.5967 0.5959 0.5951 0.5951 0.5951 0.5959 0.5967 0.5967 0.5959 0.5959 0.5944 0.5928 0.5904 0.5873 0.5842 0.5818 0.5810 0.5803 0.5787 0.5771 0.5748 0.5724 0.5709 0.5685 0.5670 0.5654 0.5646 0.5638 0.5630 0.5623 0.5623 0.5615 0.5599 0.5583 0.5583 0.5583 0.5576 0.5568 0.5560 0.5552 0.5552 0.5552 0.5560 0.5560 0.5560 0.5552 0.5552 0.5544 0.5536 0.5513 0.5489 0.5474 0.5458 0.5458 0.5458 0.5466 0.5466 0.5450 0.5442 0.5442 0.5442 0.5442 0.5442 0.5435 0.5427 0.5427 0.5411 0.5395 0.5372 0.5364 0.5348 0.5348 0.5348 0.5356 0.5364 0.5364 0.5372 0.5395 0.5403 0.5403 0.5403 0.5388 0.5372 0.5372 0.5364 0.5364 0.5364 0.5364 0.5364 0.5372 0.5372 0.5372 0.5364 0.5356 0.5348 0.5341 0.5333 0.5333 0.5333 0.5325 0.5325 0.5317 0.5317 0.5309 0.5294 0.5294 0.5294 0.5301 0.5325 0.5341 0.5348 0.5348 0.5348 0.5341 0.5333 0.5333 0.5341 0.5341 0.5341 0.5341 0.5333 0.5333 0.5325 0.5325 0.5325 0.5325 0.5325 0.5333 0.5348 0.5356 0.5356 0.5348 0.5348 0.5356 0.5348 0.5348 0.5348 0.5348 0.5341 0.5341 0.5341 0.5341 0.5325 0.5317 0.5317 0.5309 0.5309 0.5301 0.5301 0.5294 0.5286 0.5286 0.5278 0.5278 0.5270 0.5270 0.5262 0.5255 0.5255 0.5255 0.5262 0.5270 0.5270 0.5278 0.5278 0.5278 0.5278 0.5270 0.5262 0.5255 0.5247 0.5247 0.5239 0.5239 0.5247 0.5255 0.5247 0.5231
0.6186 0.6179 0.6171 0.6171 0.6155 0.6147 0.6132 0.6124 0.6116 0.6092 0.6069 0.6053 0.6038 0.6022 0.6006 0.5991 0.5983 0.5967 0.5951 0.5936 0.5928 0.5920 0.5920 0.5920 0.5904 0.5881 0.5865 0.5850 0.5826 0.5826 0.5834 0.5842 0.5850 0.5857 0.5873 0.5897 0.5912 0.5936 0.5959 0.5991 0.6006 0.6022 0.6045 0.6053 0.6077 0.6100 0.6100 0.6092 0.6092 0.6077 0.6077 0.6069 0.6053 0.6038 0.6022 0.6014 0.6006 0.5998 0.5991 0.5983 0.5975 0.5967 0.5959 0.5967 0.5951 0.5944 0.5944 0.5944 0.5951 0.5959 0.5975 0.5975 0.5967 0.5951 0.5944 0.5920 0.5897 0.5865 0.5842 0.5826 0.5818 0.5803 0.5795 0.5771 0.5748 0.5724 0.5709 0.5677 0.5662 0.5646 0.5630 0.5623 0.5615 0.5615 0.5615 0.5599 0.5583 0.5576 0.5583 0.5576 0.5576 0.5560 0.5552 0.5552 0.5544 0.5552 0.5552 0.5544 0.5544 0.5536 0.5529 0.5513 0.5505 0.5489 0.5474 0.5458 0.5450 0.5458 0.5466 0.5466 0.5458 0.5450 0.5442 0.5442 0.5442 0.5450 0.5442 0.5435 0.5427 0.5411 0.5395 0.5380 0.5356 0.5341 0.5333 0.5333 0.5333 0.5333 0.5341 0.5348 0.5364 0.5388 0.5395 0.5380 0.5380 0.5372 0.5356 0.5348 0.5348 0.5348 0.5356 0.5356 0.5364 0.5372 0.5364 0.5348 0.5341 0.5333 0.5325 0.5325 0.5325 0.5325 0.5325 0.5317 0.5317 0.5309 0.5301 0.5286 0.5278 0.5286 0.5294 0.5309 0.5333 0.5341 0.5333 0.5333 0.5325 0.5325 0.5325 0.5325 0.5325 0.5325 0.5325 0.5325 0.5325 0.5317 0.5317 0.5317 0.5317 0.5317 0.5325 0.5341 0.5348 0.5348 0.5341 0.5333 0.5341 0.5341 0.5341 0.5341 0.5333 0.5333 0.5333 0.5341 0.5333 0.5325 0.5325 0.5317 0.5309 0.5301 0.5301 0.5294 0.5286 0.5286 0.5278 0.5270 0.5262 0.5262 0.5262 0.5262 0.5255 0.5247 0.5247 0.5255 0.5255 0.5255 0.5255 0.5262 0.5262 0.5262 0.5262 0.5247 0.5239 0.5231 0.5231 0.5223 0.5231 0.5247 0.5247 0.5239 0.5223
0.6186 0.6171 0.6155 0.6139 0.6124 0.6108 0.6100 0.6085 0.6077 0.6061 0.6045 0.6030 0.6014 0.5998 0.5983 0.5975 0.5959 0.5944 0.5936 0.5920 0.5904 0.5889 0.5889 0.5889 0.5881 0.5873 0.5857 0.5826 0.5818 0.5810 0.5834 0.5857 0.5857 0.5865 0.5873 0.5889 0.5904 0.5936 0.5967 0.5991 0.6022 0.6045 0.6045 0.6053 0.6069 0.6085 0.6092 0.6085 0.6061 0.6038 0.6038 0.6038 0.6030 0.6014 0.6014 0.6006 0.5998 0.5998 0.5998 0.5983 0.5967 0.5951 0.5951 0.5944 0.5936 0.5936 0.5944 0.5944 0.5951 0.5959 0.5975 0.5975 0.5967 0.5951 0.5944 0.5936 0.5920 0.5897 0.5873 0.5850 0.5834 0.5810 0.5795 0.5779 0.5764 0.5748 0.5724 0.5693 0.5670 0.5662 0.5646 0.5615 0.5615 0.5615 0.5615 0.5591 0.5583 0.5576 0.5583 0.5576 0.5568 0.5560 0.5552 0.5544 0.5544 0.5544 0.5536 0.5536 0.5536 0.5536 0.5521 0.5505 0.5489 0.5482 0.5466 0.5458 0.5450 0.5458 0.5466 0.5466 0.5466 0.5458 0.5450 0.5450 0.5458 0.5450 0.5435 0.5419 0.5411 0.5403 0.5380 0.5364 0.5348 0.5333 0.5325 0.5317 0.5317 0.5317 0.5325 0.5325 0.5341 0.5356 0.5364 0.5364 0.5364 0.5356 0.5341 0.5333 0.5341 0.5348 0.5348 0.5348 0.5356 0.5356 0.5348 0.5341 0.5333 0.5325 0.5325 0.5325 0.5317 0.5317 0.5317 0.5309 0.5301 0.5294 0.5286 0.5286 0.5278 0.5278 0.5278 0.5294 0.5317 0.5317 0.5317 0.5309 0.5317 0.5317 0.5317 0.5317 0.5317 0.5309 0.5317 0.5317 0.5309 0.5309 0.5309 0.5317 0.5325 0.5325 0.5325 0.5341 0.5341 0.5341 0.5333 0.5325 0.5325 0.5333 0.5333 0.5325 0.5317 0.5325 0.5341 0.5341 0.5341 0.5333 0.5325 0.5317 0.5309 0.5301 0.5294 0.5286 0.5286 0.5278 0.5270 0.5262 0.5255 0.5255 0.5255 0.5255 0.5247 0.5239 0.5239 0.5247 0.5247 0.5247 0.5247 0.5247 0.5247 0.5247 0.5239 0.5247 0.5231 0.5215 0.5208 0.5215 0.5231 0.5247 0.5247 0.5239 0.5223
0.6194 0.6171 0.6147 0.6132 0.6108 0.6100 0.6085 0.6077 0.6061 0.6045 0.6014 0.6006 0.5991 0.5967 0.5959 0.5951 0.5944 0.5928 0.5920 0.5904 0.5889 0.5873 0.5873 0.5873 0.5865 0.5857 0.5842 0.5818 0.5803 0.5810 0.5826 0.5850 0.5857 0.5865 0.5881 0.5904 0.5928 0.5959 0.5991 0.6022 0.6045 0.6061 0.6069 0.6069 0.6069 0.6077 0.6069 0.6061 0.6038 0.6014 0.6006 0.6014 0.6006 0.5998 0.5998 0.5991 0.5991 0.5983 0.5983 0.5975 0.5959 0.5951 0.5936 0.5928 0.5928 0.5928 0.5928 0.5936 0.5936 0.5951 0.5967 0.5967 0.5967 0.5951 0.5936 0.5928 0.5920 0.5904 0.5889 0.5873 0.5842 0.5818 0.5795 0.5787 0.5764 0.5756 0.5724 0.5701 0.5693 0.5677 0.5646 0.5630 0.5623 0.5623 0.5607 0.5591 0.5576 0.5576 0.5576 0.5568 0.5560 0.5552 0.5536 0.5536 0.5536 0.5536 0.5529 0.5521 0.5529 0.5521 0.5513 0.5489 0.5482 0.5474 0.5466 0.5458 0.5458 0.5458 0.5466 0.5466 0.5466 0.5458 0.5458 0.5458 0.5450 0.5427 0.5411 0.5403 0.5395 0.5380 0.5364 0.5348 0.5341 0.5325 0.5317 0.5309 0.5301 0.5301 0.5309 0.5317 0.5325 0.5333 0.5333 0.5333 0.5341 0.5341 0.5333 0.5333 0.5348 0.5356 0.5356 0.5348 0.5341 0.5341 0.5341 0.5333 0.5325 0.5325 0.5317 0.5309 0.5301 0.5301 0.5309 0.5301 0.5294 0.5286 0.5278 0.5278 0.5270 0.5270 0.5270 0.5278 0.5286 0.5294 0.5301 0.5301 0.5301 0.5309 0.5309 0.5309 0.5301 0.5301 0.5301 0.5301 0.5301 0.5294 0.5301 0.5317 0.5325 0.5333 0.5333 0.5333 0.5333 0.5333 0.5325 0.5317 0.5317 0.5325 0.5317 0.5309 0.5309 0.5317 0.5341 0.5348 0.5341 0.5333 0.5325 0.5317 0.5309 0.5301 0.5294 0.5294 0.5286 0.5278 0.5270 0.5262 0.5255 0.5255 0.5255 0.5247 0.5239 0.5231 0.5231 0.5231 0.5231 0.5239 0.5239 0.5231 0.5223 0.5223 0.5215 0.5215 0.5208 0.5208 0.5200 0.5215 0.5231 0.5247 0.5247 0.5239 0.5223
0.6186 0.6171 0.6155 0.6132 0.6116 0.6100 0.6092 0.6077 0.6061 0.6038 0.6014 0.5991 0.5967 0.5944 0.5936 0.5936 0.5936 0.5936 0.5920 0.5897 0.5881 0.5873 0.5865 0.5857 0.5850 0.5842 0.5826 0.5803 0.5803 0.5803 0.5810 0.5834 0.5857 0.5873 0.5897 0.5920 0.5936 0.5975 0.6014 0.6038 0.6069 0.6085 0.6085 0.6077 0.6069 0.6061 0.6053 0.6038 0.6014 0.5991 0.5983 0.5983 0.5983 0.5983 0.5975 0.5967 0.5959 0.5951 0.5951 0.5951 0.5951 0.5944 0.5928 0.5920 0.5912 0.5912 0.5912 0.5912 0.5912 0.5920 0.5944 0.5951 0.5959 0.5944 0.5936 0.5920 0.5920 0.5904 0.5897 0.5873 0.5850 0.5818 0.5795 0.5779 0.5764 0.5748 0.5724 0.5717 0.5701 0.5685 0.5662 0.5638 0.5623 0.5615 0.5599 0.5583 0.5583 0.5576 0.5560 0.5552 0.5552 0.5544 0.5529 0.5521 0.5521 0.5513 0.5505 0.5497 0.5497 0.5497 0.5482 0.5474 0.5474 0.5466 0.5458 0.5450 0.5450 0.5450 0.5458 0.5466 0.5466 0.5458 0.5450 0.5435 0.5427 0.5411 0.5395 0.5388 0.5380 0.5364 0.5356 0.5348 0.5333 0.5317 0.5309 0.5309 0.5301 0.5309 0.5301 0.5301 0.5301 0.5309 0.5309 0.5309 0.5317 0.5325 0.5325 0.5333 0.5341 0.5348 0.5348 0.5348 0.5348 0.5341 0.5341 0.5333 0.5325 0.5309 0.5301 0.5294 0.5294 0.5294 0.5301 0.5294 0.5286 0.5278 0.5278 0.5270 0.5270 0.5262 0.5255 0.5255 0.5255 0.5270 0.5278 0.5294 0.5294 0.5294 0.5294 0.5294 0.5294 0.5286 0.5286 0.5294 0.5294 0.5294 0.5294 0.5301 0.5317 0.5317 0.5325 0.5325 0.5317 0.5317 0.5309 0.5301 0.5301 0.5309 0.5301 0.5301 0.5309 0.5317 0.5333 0.5348 0.5348 0.5341 0.5333 0.5325 0.5309 0.5294 0.5294 0.5294 0.5278 0.5278 0.5270 0.5262 0.5262 0.5255 0.5255 0.5247 0.5239 0.5231 0.5223 0.5223 0.5223 0.5231 0.5231 0.5223 0.5215 0.5208 0.5200 0.5200 0.5200 0.5200 0.5208 0.5223 0.5231 0.5239 0.5239 0.5231 0.5223
0.6194 0.6179 0.6171 0.6155 0.6139 0.6132 0.6108 0.6100 0.6085 0.6069 0.6038 0.6014 0.5983 0.5959 0.5944 0.5944 0.5959 0.5959 0.5944 0.5912 0.5889 0.5865 0.5857 0.5850 0.5834 0.5818 0.5803 0.5795 0.5787 0.5795 0.5803 0.5826 0.5857 0.5873 0.5897 0.5928 0.5959 0.5998 0.6030 0.6061 0.6085 0.6085 0.6077 0.6061 0.6053 0.6038 0.6030 0.6014 0.5991 0.5975 0.5975 0.5967 0.5967 0.5959 0.5951 0.5936 0.5928 0.5920 0.5920 0.5920 0.5928 0.5920 0.5912 0.5897 0.5897 0.5897 0.5889 0.5889 0.5897 0.5904 0.5920 0.5936 0.5936 0.5936 0.5928 0.5920 0.5920 0.5912 0.5897 0.5873 0.5842 0.5818 0.5795 0.5779 0.5756 0.5732 0.5709 0.5709 0.5693 0.5677 0.5654 0.5630 0.5623 0.5607 0.5591 0.5583 0.5576 0.5568 0.5560 0.5552 0.5544 0.5536 0.5521 0.5513 0.5513 0.5505 0.5489 0.5489 0.5482 0.5474 0.5466 0.5458 0.5466 0.5466 0.5450 0.5442 0.5442 0.5450 0.5466 0.5466 0.5466 0.5450 0.5435 0.5419 0.5411 0.5395 0.5380 0.5372 0.5364 0.5348 0.5348 0.5348 0.5333 0.5325 0.5317 0.5317 0.5309 0.5301 0.5294 0.5278 0.5278 0.5294 0.5301 0.5301 0.5301 0.5309 0.5309 0.5317 0.5325 0.5333 0.5341 0.5348 0.5348 0.5341 0.5333 0.5325 0.5309 0.5301 0.5294 0.5286 0.5286 0.5286 0.5294 0.5294 0.5286 0.5278 0.5278 0.5270 0.5270 0.5262 0.5255 0.5247 0.5239 0.5247 0.5262 0.5270 0.5270 0.5270 0.5278 0.5278 0.5278 0.5278 0.5278 0.5286 0.5286 0.5278 0.5270 0.5286 0.5294 0.5309 0.5309 0.5309 0.5301 0.5294 0.5294 0.5294 0.5294 0.5294 0.5294 0.5294 0.5301 0.5309 0.5325 0.5341 0.5348 0.5348 0.5333 0.5317 0.5301 0.5294 0.5294 0.5286 0.5278 0.5262 0.5262 0.5262 0.5262 0.5255 0.5247 0.5239 0.5231 0.5223 0.5215 0.5215 0.5215 0.5223 0.5223 0.5215 0.5208 0.5200 0.5192 0.5200 0.5200 0.5208 0.5208 0.5215 0.5231 0.5231 0.5223 0.5223 0.5223
0.6210 0.6194 0.6194 0.6186 0.6171 0.6171 0.6155 0.6139 0.6132 0.6108 0.6077 0.6045 0.6014 0.5998 0.5983 0.5975 0.5975 0.5983 0.5967 0.5936 0.5897 0.5873 0.5857 0.5850 0.5826 0.5803 0.5787 0.5779 0.5779 0.5779 0.5787 0.5818 0.5850 0.5873 0.5897 0.5936 0.5975 0.6014 0.6045 0.6077 0.6092 0.6092 0.6077 0.6053 0.6030 0.6022 0.6006 0.5991 0.5975 0.5959 0.5959 0.5951 0.5944 0.5944 0.5928 0.5920 0.5904 0.5897 0.5889 0.5897 0.5904 0.5912 0.5904 0.5889 0.5873 0.5865 0.5865 0.5873 0.5889 0.5897 0.5904 0.5904 0.5912 0.5912 0.5912 0.5912 0.5912 0.5904 0.5897 0.5881 0.5842 0.5818 0.5795 0.5779 0.5756 0.5724 0.5693 0.5685 0.5670 0.5654 0.5638 0.5623 0.5607 0.5607 0.5599 0.5591 0.5583 0.5576 0.5568 0.5560 0.5552 0.5544 0.5521 0.5505 0.5505 0.5497 0.5489 0.5482 0.5474 0.5466 0.5458 0.5458 0.5458 0.5458 0.5450 0.5442 0.5442 0.5450 0.5458 0.5466 0.5458 0.5442 0.5427 0.5411 0.5395 0.5372 0.5364 0.5356 0.5348 0.5341 0.5341 0.5333 0.5333 0.5317 0.5309 0.5317 0.5309 0.5301 0.5286 0.5270 0.5270 0.5286 0.5294 0.5294 0.5301 0.5301 0.5309 0.5309 0.5317 0.5325 0.5333 0.5341 0.5348 0.5341 0.5325 0.5317 0.5309 0.5294 0.5286 0.5278 0.5278 0.5278 0.5278 0.5278 0.5278 0.5278 0.5278 0.5270 0.5262 0.5262 0.5255 0.5239 0.5231 0.5231 0.5239 0.5247 0.5255 0.5255 0.5255 0.5262 0.5270 0.5278 0.5286 0.5286 0.5278 0.5262 0.5262 0.5270 0.5278 0.5286 0.5294 0.5294 0.5286 0.5286 0.5286 0.5286 0.5294 0.5286 0.5286 0.5286 0.5294 0.5294 0.5309 0.5333 0.5348 0.5348 0.5325 0.5309 0.5301 0.5286 0.5278 0.5270 0.5262 0.5255 0.5255 0.5262 0.5255 0.5247 0.5231 0.5223 0.5223 0.5223 0.5215 0.5208 0.5208 0.5215 0.5215 0.5215 0.5200 0.5192 0.5192 0.5200 0.5200 0.5200 0.5200 0.5208 0.5215 0.5215 0.5215 0.5215 0.5215
0.6218 0.6210 0.6194 0.6194 0.6186 0.6186 0.6179 0.6171 0.6147 0.6132 0.6100 0.6077 0.6061 0.6038 0.6022 0.6006 0.6006 0.5998 0.5983 0.5967 0.5936 0.5904 0.5889 0.5873 0.5850 0.5810 0.5787 0.5779 0.5779 0.5771 0.5787 0.5818 0.5850 0.5881 0.5904 0.5944 0.5975 0.6006 0.6038 0.6069 0.6085 0.6085 0.6061 0.6030 0.6014 0.5998 0.5983 0.5975 0.5959 0.5944 0.5928 0.5928 0.5928 0.5920 0.5912 0.5904 0.5897 0.5889 0.5881 0.5897 0.5897 0.5897 0.5889 0.5873 0.5865 0.5857 0.5850 0.5865 0.5889 0.5897 0.5889 0.5889 0.5889 0.5897 0.5897 0.5897 0.5889 0.5881 0.5881 0.5873 0.5850 0.5818 0.5795 0.5771 0.5748 0.5717 0.5685 0.5670 0.5654 0.5646 0.5638 0.5623 0.5607 0.5607 0.5599 0.5599 0.5591 0.5583 0.5576 0.5568 0.5560 0.5552 0.5521 0.5505 0.5497 0.5489 0.5482 0.5482 0.5474 0.5466 0.5458 0.5450 0.5450 0.5450 0.5450 0.5442 0.5442 0.5442 0.5450 0.5450 0.5450 0.5435 0.5419 0.5403 0.5372 0.5356 0.5348 0.5348 0.5341 0.5325 0.5325 0.5325 0.5317 0.5309 0.5309 0.5309 0.5309 0.5294 0.5278 0.5270 0.5270 0.5270 0.5286 0.5294 0.5294 0.5294 0.5301 0.5301 0.5301 0.5309 0.5317 0.5333 0.5341 0.5341 0.5325 0.5309 0.5301 0.5301 0.5294 0.5278 0.5270 0.5270 0.5262 0.5262 0.5270 0.5270 0.5270 0.5262 0.5262 0.5262 0.5255 0.5247 0.5231 0.5223 0.5223 0.5223 0.5231 0.5239 0.5239 0.5255 0.5262 0.5270 0.5270 0.5278 0.5270 0.5262 0.5262 0.5262 0.5270 0.5278 0.5286 0.5286 0.5278 0.5278 0.5278 0.5286 0.5294 0.5294 0.5286 0.5286 0.5286 0.5294 0.5309 0.5333 0.5341 0.5341 0.5325 0.5309 0.5294 0.5278 0.5262 0.5255 0.5247 0.5247 0.5255 0.5255 0.5247 0.5231 0.5223 0.5223 0.5223 0.5223 0.5215 0.5208 0.5200 0.5200 0.5208 0.5200 0.5192 0.5184 0.5184 0.5192 0.5192 0.5192 0.5192 0.5192 0.5192 0.5200 0.5200 0.5208 0.5208
0.6226 0.6210 0.6202 0.6194 0.6186 0.6179 0.6179 0.6171 0.6155 0.6132 0.6124 0.6116 0.6100 0.6077 0.6061 0.6061 0.6045 0.6030 0.6006 0.5983 0.5959 0.5936 0.5912 0.5897 0.5865 0.5826 0.5803 0.5787 0.5779 0.5771 0.5787 0.5810 0.5842 0.5881 0.5912 0.5951 0.5983 0.6014 0.6038 0.6053 0.6069 0.6053 0.6038 0.6006 0.5991 0.5975 0.5959 0.5951 0.5936 0.5920 0.5912 0.5912 0.5904 0.5904 0.5897 0.5889 0.5889 0.5881 0.5881 0.5889 0.5889 0.5873 0.5865 0.5857 0.5857 0.5850 0.5850 0.5850 0.5865 0.5873 0.5873 0.5881 0.5881 0.5873 0.5881 0.5881 0.5873 0.5873 0.5865 0.5857 0.5842 0.5826 0.5803 0.5779 0.5748 0.5724 0.5693 0.5677 0.5677 0.5670 0.5646 0.5630 0.5615 0.5599 0.5599 0.5591 0.5591 0.5591 0.5591 0.5583 0.5576 0.5560 0.5536 0.5505 0.5497 0.5489 0.5482 0.5474 0.5466 0.5466 0.5458 0.5450 0.5442 0.5442 0.5435 0.5435 0.5435 0.5435 0.5427 0.5419 0.5411 0.5403 0.5395 0.5380 0.5356 0.5341 0.5341 0.5341 0.5333 0.5325 0.5317 0.5317 0.5317 0.5317 0.5309 0.5309 0.5301 0.5278 0.5270 0.5262 0.5262 0.5262 0.5262 0.5270 0.5278 0.5278 0.5286 0.5286 0.5294 0.5286 0.5286 0.5301 0.5317 0.5325 0.5309 0.5301 0.5294 0.5294 0.5294 0.5278 0.5270 0.5262 0.5255 0.5255 0.5255 0.5247 0.5247 0.5255 0.5255 0.5262 0.5262 0.5247 0.5239 0.5231 0.5223 0.5223 0.5223 0.5231 0.5239 0.5247 0.5255 0.5262 0.5255 0.5247 0.5247 0.5247 0.5255 0.5255 0.5262 0.5270 0.5278 0.5278 0.5278 0.5278 0.5278 0.5286 0.5286 0.5286 0.5278 0.5278 0.5286 0.5294 0.5309 0.5333 0.5341 0.5341 0.5341 0.5325 0.5309 0.5294 0.5278 0.5262 0.5255 0.5255 0.5262 0.5255 0.5239 0.5231 0.5223 0.5215 0.5215 0.5215 0.5208 0.5200 0.5192 0.5192 0.5192 0.5192 0.5192 0.5192 0.5192 0.5192 0.5184 0.5176 0.5184 0.5184 0.5184 0.5184 0.5184 0.5184 0.5200
0.6226 0.6218 0.6202 0.6194 0.6179 0.6171 0.6163 0.6163 0.6147 0.6132 0.6132 0.6124 0.6108 0.6092 0.6092 0.6085 0.6069 0.6053 0.6030 0.6006 0.5983 0.5951 0.5928 0.5889 0.5857 0.5842 0.5818 0.5803 0.5779 0.5779 0.5787 0.5818 0.5850 0.5881 0.5920 0.5959 0.5998 0.6022 0.6030 0.6030 0.6022 0.6014 0.6006 0.5983 0.5967 0.5959 0.5944 0.5936 0.5920 0.5912 0.5897 0.5904 0.5904 0.5904 0.5889 0.5873 0.5873 0.5873 0.5873 0.5873 0.5865 0.5865 0.5857 0.5850 0.5850 0.5842 0.5834 0.5834 0.5834 0.5850 0.5857 0.5865 0.5857 0.5857 0.5857 0.5850 0.5850 0.5857 0.5850 0.5842 0.5834 0.5818 0.5803 0.5787 0.5764 0.5740 0.5709 0.5685 0.5677 0.5670 0.5646 0.5630 0.5623 0.5607 0.5591 0.5583 0.5599 0.5599 0.5591 0.5583 0.5568 0.5560 0.5536 0.5521 0.5513 0.5497 0.5474 0.5466 0.5466 0.5450 0.5442 0.5435 0.5427 0.5427 0.5419 0.5419 0.5419 0.5419 0.5411 0.5403 0.5388 0.5388 0.5380 0.5372 0.5356 0.5348 0.5341 0.5333 0.5333 0.5325 0.5317 0.5317 0.5317 0.5317 0.5317 0.5309 0.5294 0.5286 0.5270 0.5270 0.5270 0.5262 0.5255 0.5262 0.5270 0.5270 0.5270 0.5270 0.5278 0.5278 0.5278 0.5286 0.5301 0.5309 0.5301 0.5286 0.5286 0.5286 0.5278 0.5270 0.5270 0.5270 0.5262 0.5255 0.5239 0.5239 0.5239 0.5247 0.5255 0.5255 0.5255 0.5247 0.5247 0.5239 0.5239 0.5231 0.5223 0.5223 0.5223 0.5239 0.5239 0.5239 0.5231 0.5223 0.5223 0.5223 0.5223 0.5231 0.5247 0.5262 0.5270 0.5270 0.5278 0.5286 0.5286 0.5278 0.5286 0.5278 0.5270 0.5270 0.5278 0.5294 0.5317 0.5333 0.5341 0.5341 0.5333 0.5325 0.5317 0.5301 0.5286 0.5270 0.5262 0.5270 0.5270 0.5262 0.5239 0.5223 0.5223 0.5215 0.5208 0.5208 0.5200 0.5200 0.5192 0.5184 0.5184 0.5192 0.5200 0.5200 0.5192 0.5184 0.5176 0.5176 0.5176 0.5184 0.5184 0.5176 0.5176 0.5176 0.5184
0.6210 0.6210 0.6202 0.6194 0.6179 0.6163 0.6155 0.6147 0.6132 0.6116 0.6116 0.6100 0.6085 0.6085 0.6085 0.6077 0.6069 0.6053 0.6038 0.6014 0.5991 0.5967 0.5928 0.5889 0.5857 0.5842 0.5818 0.5787 0.5771 0.5771 0.5787 0.5818 0.5857 0.5889 0.5920 0.5951 0.5975 0.5991 0.5998 0.5998 0.5998 0.5991 0.5983 0.5967 0.5951 0.5936 0.5936 0.5920 0.5912 0.5904 0.5897 0.5897 0.5897 0.5889 0.5873 0.5857 0.5850 0.5850 0.5850 0.5850 0.5842 0.5842 0.5850 0.5842 0.5834 0.5826 0.5818 0.5818 0.5818 0.5826 0.5834 0.5842 0.5842 0.5842 0.5834 0.5826 0.5818 0.5826 0.5834 0.5826 0.5818 0.5810 0.5795 0.5779 0.5771 0.5748 0.5717 0.5693 0.5685 0.5670 0.5646 0.5630 0.5623 0.5615 0.5591 0.5583 0.5591 0.5599 0.5591 0.5576 0.5560 0.5536 0.5529 0.5521 0.5513 0.5497 0.5482 0.5458 0.5442 0.5435 0.5427 0.5419 0.5419 0.5419 0.5411 0.5403 0.5403 0.5403 0.5403 0.5395 0.5388 0.5388 0.5380 0.5372 0.5364 0.5356 0.5348 0.5341 0.5341 0.5333 0.5325 0.5317 0.5309 0.5309 0.5301 0.5294 0.5286 0.5286 0.5278 0.5278 0.5270 0.5262 0.5247 0.5247 0.5247 0.5255 0.5255 0.5247 0.5255 0.5262 0.5270 0.5286 0.5301 0.5309 0.5294 0.5278 0.5278 0.5270 0.5278 0.5278 0.5286 0.5286 0.5270 0.5255 0.5247 0.5239 0.5247 0.5239 0.5247 0.5247 0.5247 0.5247 0.5239 0.5239 0.5231 0.5223 0.5215 0.5215 0.5223 0.5231 0.5239 0.5239 0.5231 0.5223 0.5215 0.5208 0.5208 0.5223 0.5239 0.5255 0.5262 0.5270 0.5278 0.5286 0.5278 0.5278 0.5278 0.5270 0.5270 0.5270 0.5270 0.5301 0.5333 0.5348 0.5341 0.5333 0.5333 0.5317 0.5309 0.5294 0.5286 0.5270 0.5262 0.5262 0.5262 0.5255 0.5247 0.5231 0.5223 0.5215 0.5208 0.5200 0.5200 0.5192 0.5184 0.5176 0.5176 0.5184 0.5192 0.5192 0.5184 0.5176 0.5176 0.5176 0.5184 0.5184 0.5176 0.5176 0.5168 0.5168 0.5176
0.6186 0.6194 0.6194 0.6194 0.6179 0.6163 0.6155 0.6139 0.6124 0.6108 0.6085 0.6069 0.6061 0.6061 0.6061 0.6061 0.6053 0.6038 0.6030 0.6014 0.5991 0.5967 0.5936 0.5897 0.5857 0.5826 0.5810 0.5771 0.5740 0.5764 0.5787 0.5810 0.5850 0.5881 0.5912 0.5944 0.5959 0.5967 0.5967 0.5975 0.5967 0.5975 0.5959 0.5944 0.5928 0.5928 0.5920 0.5904 0.5904 0.5889 0.5873 0.5873 0.5865 0.5865 0.5850 0.5834 0.5826 0.5834 0.5826 0.5826 0.5818 0.5826 0.5826 0.5826 0.5818 0.5818 0.5810 0.5810 0.5810 0.5810 0.5818 0.5826 0.5834 0.5826 0.5810 0.5803 0.5803 0.5803 0.5818 0.5818 0.5818 0.5803 0.5787 0.5779 0.5756 0.5740 0.5717 0.5701 0.5693 0.5670 0.5654 0.5638 0.5630 0.5615 0.5591 0.5576 0.5576 0.5583 0.5576 0.5560 0.5552 0.5536 0.5521 0.5521 0.5513 0.5505 0.5474 0.5442 0.5435 0.5435 0.5419 0.5419 0.5411 0.5411 0.5403 0.5411 0.5411 0.5403 0.5403 0.5403 0.5403 0.5395 0.5388 0.5388 0.5372 0.5364 0.5364 0.5348 0.5341 0.5333 0.5325 0.5317 0.5317 0.5301 0.5286 0.5278 0.5270 0.5270 0.5270 0.5270 0.5262 0.5255 0.5255 0.5247 0.5247 0.5247 0.5247 0.5247 0.5247 0.5247 0.5255 0.5262 0.5278 0.5286 0.5278 0.5278 0.5270 0.5278 0.5286 0.5301 0.5294 0.5294 0.5278 0.5262 0.5255 0.5247 0.5247 0.5239 0.5231 0.5231 0.5239 0.5239 0.5231 0.5231 0.5223 0.5215 0.5215 0.5223 0.5231 0.5239 0.5239 0.5239 0.5231 0.5223 0.5208 0.5200 0.5200 0.5208 0.5215 0.5239 0.5255 0.5270 0.5278 0.5278 0.5286 0.5270 0.5270 0.5262 0.5262 0.5262 0.5278 0.5301 0.5333 0.5341 0.5333 0.5325 0.5325 0.5317 0.5309 0.5294 0.5278 0.5262 0.5255 0.5255 0.5255 0.5255 0.5247 0.5231 0.5223 0.5215 0.5208 0.5208 0.5200 0.5184 0.5176 0.5168 0.5168 0.5168 0.5176 0.5176 0.5176 0.5176 0.5176 0.5176 0.5184 0.5184 0.5176 0.5168 0.5161 0.5168 0.5168
0.6179 0.6194 0.6202 0.6202 0.6179 0.6163 0.6147 0.6132 0.6124 0.6100 0.6092 0.6061 0.6038 0.6038 0.6038 0.6030 0.6022 0.6014 0.6006 0.5991 0.5975 0.5951 0.5920 0.5881 0.5842 0.5826 0.5810 0.5771 0.5756 0.5756 0.5779 0.5795 0.5826 0.5865 0.5897 0.5920 0.5936 0.5944 0.5944 0.5951 0.5951 0.5944 0.5928 0.5920 0.5912 0.5904 0.5897 0.5889 0.5881 0.5857 0.5850 0.5850 0.5842 0.5834 0.5826 0.5818 0.5818 0.5818 0.5818 0.5818 0.5810 0.5810 0.5803 0.5803 0.5810 0.5803 0.5803 0.5795 0.5795 0.5803 0.5803 0.5810 0.5810 0.5810 0.5803 0.5795 0.5787 0.5787 0.5803 0.5803 0.5795 0.5787 0.5779 0.5764 0.5740 0.5724 0.5701 0.5701 0.5693 0.5677 0.5662 0.5646 0.5638 0.5638 0.5615 0.5591 0.5583 0.5576 0.5576 0.5568 0.5552 0.5536 0.5521 0.5513 0.5505 0.5489 0.5466 0.5442 0.5427 0.5427 0.5427 0.5419 0.5411 0.5411 0.5411 0.5419 0.5419 0.5419 0.5411 0.5419 0.5411 0.5411 0.5395 0.5388 0.5388 0.5380 0.5372 0.5356 0.5348 0.5341 0.5325 0.5333 0.5317 0.5301 0.5286 0.5278 0.5270 0.5270 0.5270 0.5262 0.5262 0.5255 0.5255 0.5247 0.5247 0.5247 0.5247 0.5239 0.5231 0.5231 0.5239 0.5247 0.5262 0.5270 0.5270 0.5270 0.5270 0.5278 0.5286 0.5286 0.5294 0.5286 0.5278 0.5270 0.5270 0.5262 0.5255 0.5247 0.5231 0.5223 0.5223 0.5223 0.5223 0.5223 0.5223 0.5215 0.5215 0.5223 0.5231 0.5231 0.5223 0.5223 0.5223 0.5208 0.5208 0.5200 0.5192 0.5192 0.5200 0.5223 0.5247 0.5262 0.5270 0.5278 0.5270 0.5262 0.5262 0.5262 0.5262 0.5262 0.5286 0.5301 0.5309 0.5317 0.5317 0.5317 0.5325 0.5317 0.5309 0.5286 0.5270 0.5255 0.5247 0.5255 0.5255 0.5247 0.5239 0.5223 0.5215 0.5208 0.5208 0.5200 0.5192 0.5192 0.5184 0.5176 0.5168 0.5168 0.5168 0.5168 0.5168 0.5168 0.5168 0.5168 0.5168 0.5176 0.5176 0.5168 0.5161 0.5161 0.5161
0.6179 0.6194 0.6202 0.6202 0.6179 0.6155 0.6132 0.6116 0.6100 0.6092 0.6085 0.6061 0.6038 0.6014 0.5998 0.5998 0.5991 0.5983 0.5967 0.5951 0.5936 0.5920 0.5897 0.5857 0.5834 0.5818 0.5795 0.5771 0.5756 0.5748 0.5756 0.5771 0.5803 0.5834 0.5865 0.5881 0.5897 0.5897 0.5912 0.5920 0.5920 0.5912 0.5904 0.5897 0.5881 0.5873 0.5873 0.5873 0.5857 0.5834 0.5826 0.5834 0.5834 0.5826 0.5818 0.5810 0.5810 0.5810 0.5803 0.5803 0.5803 0.5795 0.5795 0.5795 0.5795 0.5795 0.5787 0.5787 0.5787 0.5787 0.5787 0.5779 0.5779 0.5787 0.5787 0.5787 0.5779 0.5771 0.5779 0.5779 0.5771 0.5771 0.5756 0.5748 0.5732 0.5724 0.5717 0.5709 0.5709 0.5693 0.5670 0.5662 0.5662 0.5654 0.5646 0.5630 0.5607 0.5591 0.5576 0.5560 0.5544 0.5529 0.5513 0.5505 0.5497 0.5482 0.5458 0.5435 0.5419 0.5419 0.5411 0.5411 0.5411 0.5411 0.5411 0.5411 0.5411 0.5411 0.5419 0.5419 0.5419 0.5411 0.5403 0.5395 0.5388 0.5388 0.5372 0.5356 0.5341 0.5333 0.5333 0.5325 0.5325 0.5317 0.5294 0.5286 0.5286 0.5286 0.5278 0.5262 0.5255 0.5255 0.5247 0.5247 0.5247 0.5239 0.5231 0.5223 0.5223 0.5223 0.5231 0.5239 0.5255 0.5262 0.5262 0.5262 0.5270 0.5270 0.5270 0.5270 0.5278 0.5278 0.5278 0.5278 0.5270 0.5262 0.5262 0.5255 0.5239 0.5231 0.5215 0.5208 0.5208 0.5208 0.5215 0.5208 0.5208 0.5215 0.5208 0.5208 0.5215 0.5215 0.5215 0.5215 0.5215 0.5200 0.5192 0.5192 0.5192 0.5208 0.5223 0.5239 0.5255 0.5262 0.5255 0.5255 0.5255 0.5247 0.5255 0.5262 0.5278 0.5294 0.5301 0.5301 0.5309 0.5317 0.5317 0.5309 0.5301 0.5278 0.5262 0.5255 0.5255 0.5247 0.5247 0.5239 0.5231 0.5223 0.5215 0.5208 0.5200 0.5200 0.5200 0.5200 0.5192 0.5192 0.5184 0.5168 0.5161 0.5161 0.5161 0.5168 0.5168 0.5168 0.5168 0.5168 0.5168 0.5168 0.5161 0.5161 0.5161
0.6179 0.6194 0.6194 0.6186 0.6179 0.6155 0.6124 0.6100 0.6077 0.6077 0.6077 0.6061 0.6030 0.5998 0.5983 0.5967 0.5959 0.5936 0.5928 0.5920 0.5904 0.5897 0.5873 0.5850 0.5826 0.5810 0.5787 0.5764 0.5740 0.5732 0.5740 0.5756 0.5787 0.5818 0.5842 0.5857 0.5865 0.5873 0.5889 0.5897 0.5897 0.5897 0.5881 0.5873 0.5857 0.5850 0.5850 0.5842 0.5826 0.5810 0.5803 0.5810 0.5818 0.5818 0.5803 0.5795 0.5787 0.5787 0.5787 0.5787 0.5795 0.5795 0.5795 0.5787 0.5787 0.5787 0.5787 0.5779 0.5779 0.5779 0.5771 0.5764 0.5764 0.5771 0.5771 0.5771 0.5764 0.5764 0.5756 0.5748 0.5740 0.5740 0.5732 0.5724 0.5724 0.5732 0.5732 0.5724 0.5717 0.5701 0.5677 0.5670 0.5662 0.5654 0.5646 0.5630 0.5607 0.5583 0.5568 0.5544 0.5529 0.5521 0.5505 0.5505 0.5497 0.5474 0.5450 0.5427 0.5419 0.5403 0.5395 0.5395 0.5403 0.5403 0.5411 0.5403 0.5403 0.5411 0.5419 0.5419 0.5411 0.5411 0.5403 0.5403 0.5395 0.5380 0.5372 0.5356 0.5348 0.5341 0.5325 0.5325 0.5317 0.5309 0.5301 0.5294 0.5286 0.5278 0.5270 0.5262 0.5255 0.5255 0.5255 0.5247 0.5239 0.5231 0.5223 0.5215 0.5215 0.5223 0.5223 0.5231 0.5239 0.5247 0.5255 0.5262 0.5270 0.5262 0.5262 0.5262 0.5262 0.5270 0.5270 0.5270 0.5262 0.5255 0.5247 0.5247 0.5239 0.5223 0.5215 0.5208 0.5200 0.5208 0.5208 0.5200 0.5200 0.5200 0.5192 0.5200 0.5215 0.5223 0.5223 0.5215 0.5208 0.5200 0.5184 0.5184 0.5184 0.5192 0.5208 0.5223 0.5239 0.5247 0.5247 0.5239 0.5231 0.5231 0.5231 0.5247 0.5262 0.5286 0.5294 0.5301 0.5309 0.5309 0.5301 0.5301 0.5286 0.5262 0.5255 0.5262 0.5255 0.5247 0.5231 0.5231 0.5231 0.5231 0.5223 0.5215 0.5215 0.5208 0.5215 0.5215 0.5215 0.5208 0.5192 0.5168 0.5161 0.5161 0.5161 0.5168 0.5168 0.5168 0.5168 0.5168 0.5168 0.5161 0.5153 0.5153 0.5145
0.6171 0.6171 0.6171 0.6171 0.6155 0.6132 0.6108 0.6092 0.6085 0.6069 0.6061 0.6045 0.6022 0.5998 0.5983 0.5959 0.5928 0.5912 0.5897 0.5889 0.5881 0.5865 0.5850 0.5842 0.5826 0.5803 0.5779 0.5740 0.5717 0.5717 0.5724 0.5756 0.5787 0.5810 0.5826 0.5834 0.5850 0.5865 0.5873 0.5881 0.5881 0.5873 0.5857 0.5850 0.5842 0.5834 0.5826 0.5818 0.5810 0.5803 0.5795 0.5795 0.5795 0.5795 0.5787 0.5787 0.5779 0.5779 0.5779 0.5779 0.5787 0.5787 0.5787 0.5779 0.5779 0.5771 0.5771 0.5764 0.5764 0.5771 0.5764 0.5764 0.5764 0.5764 0.5764 0.5756 0.5748 0.5740 0.5732 0.5717 0.5717 0.5717 0.5709 0.5709 0.5717 0.5732 0.5732 0.5724 0.5717 0.5693 0.5670 0.5646 0.5630 0.5623 0.5623 0.5607 0.5591 0.5576 0.5552 0.5529 0.5521 0.5505 0.5505 0.5497 0.5489 0.5458 0.5442 0.5427 0.5411 0.5395 0.5380 0.5380 0.5388 0.5395 0.5388 0.5395 0.5403 0.5403 0.5411 0.5411 0.5411 0.5403 0.5403 0.5395 0.5388 0.5388 0.5372 0.5364 0.5348 0.5341 0.5333 0.5325 0.5317 0.5309 0.5301 0.5294 0.5278 0.5270 0.5270 0.5255 0.5247 0.5247 0.5255 0.5247 0.5239 0.5231 0.5223 0.5215 0.5215 0.5215 0.5215 0.5223 0.5223 0.5239 0.5247 0.5255 0.5255 0.5255 0.5255 0.5255 0.5255 0.5262 0.5262 0.5262 0.5255 0.5247 0.5247 0.5239 0.5231 0.5223 0.5215 0.5208 0.5208 0.5208 0.5200 0.5200 0.5192 0.5192 0.5184 0.5200 0.5215 0.5223 0.5215 0.5208 0.5200 0.5192 0.5184 0.5184 0.5184 0.5184 0.5200 0.5215 0.5231 0.5239 0.5239 0.5231 0.5223 0.5223 0.5223 0.5231 0.5247 0.5270 0.5278 0.5286 0.5294 0.5294 0.5294 0.5286 0.5278 0.5262 0.5262 0.5262 0.5262 0.5255 0.5239 0.5231 0.5239 0.5239 0.5231 0.5231 0.5223 0.5231 0.5231 0.5231 0.5223 0.5215 0.5200 0.5184 0.5168 0.5161 0.5161 0.5153 0.5161 0.5161 0.5168 0.5168 0.5161 0.5153 0.5153 0.5145 0.5137
0.6147 0.6147 0.6139 0.6139 0.6108 0.6085 0.6092 0.6100 0.6085 0.6061 0.6038 0.6022 0.6006 0.5991 0.5975 0.5951 0.5920 0.5897 0.5881 0.5865 0.5857 0.5834 0.5826 0.5810 0.5803 0.5787 0.5756 0.5732 0.5701 0.5693 0.5701 0.5732 0.5771 0.5795 0.5810 0.5818 0.5826 0.5834 0.5842 0.5857 0.5865 0.5857 0.5850 0.5834 0.5826 0.5818 0.5810 0.5818 0.5818 0.5810 0.5787 0.5779 0.5771 0.5771 0.5779 0.5779 0.5771 0.5764 0.5764 0.5771 0.5771 0.5771 0.5779 0.5779 0.5771 0.5764 0.5748 0.5748 0.5748 0.5748 0.5748 0.5756 0.5756 0.5756 0.5756 0.5756 0.5748 0.5740 0.5724 0.5709 0.5701 0.5693 0.5693 0.5693 0.5709 0.5717 0.5717 0.5717 0.5701 0.5677 0.5654 0.5623 0.5599 0.5591 0.5599 0.5591 0.5583 0.5560 0.5536 0.5505 0.5497 0.5489 0.5474 0.5474 0.5466 0.5450 0.5435 0.5419 0.5403 0.5380 0.5372 0.5380 0.5372 0.5364 0.5372 0.5380 0.5395 0.5403 0.5403 0.5403 0.5403 0.5403 0.5395 0.5395 0.5395 0.5388 0.5388 0.5372 0.5356 0.5348 0.5341 0.5333 0.5333 0.5317 0.5309 0.5286 0.5270 0.5270 0.5262 0.5247 0.5239 0.5239 0.5247 0.5239 0.5231 0.5223 0.5215 0.5215 0.5208 0.5208 0.5208 0.5215 0.5223 0.5231 0.5239 0.5247 0.5247 0.5255 0.5255 0.5255 0.5255 0.5255 0.5255 0.5255 0.5255 0.5247 0.5239 0.5239 0.5223 0.5215 0.5208 0.5208 0.5208 0.5200 0.5192 0.5184 0.5184 0.5184 0.5192 0.5192 0.5200 0.5200 0.5200 0.5200 0.5200 0.5192 0.5184 0.5184 0.5184 0.5184 0.5200 0.5208 0.5223 0.5239 0.5239 0.5231 0.5223 0.5223 0.5223 0.5231 0.5239 0.5255 0.5262 0.5278 0.5286 0.5286 0.5286 0.5278 0.5270 0.5262 0.5262 0.5262 0.5262 0.5255 0.5247 0.5239 0.5239 0.5239 0.5239 0.5231 0.5231 0.5239 0.5231 0.5231 0.5223 0.5215 0.5200 0.5192 0.5176 0.5168 0.5153 0.5145 0.5153 0.5161 0.5161 0.5161 0.5153 0.5153 0.5145 0.5145 0.5129
0.6124 0.6124 0.6132 0.6116 0.6092 0.6077 0.6069 0.6077 0.6077 0.6053 0.6022 0.6006 0.5991 0.5983 0.5975 0.5951 0.5920 0.5897 0.5881 0.5857 0.5834 0.5810 0.5795 0.5787 0.5787 0.5771 0.5748 0.5724 0.5709 0.5693 0.5701 0.5717 0.5740 0.5764 0.5779 0.5787 0.5787 0.5803 0.5810 0.5818 0.5834 0.5842 0.5834 0.5818 0.5803 0.5803 0.5803 0.5810 0.5803 0.5795 0.5787 0.5771 0.5764 0.5764 0.5771 0.5764 0.5764 0.5756 0.5756 0.5764 0.5764 0.5764 0.5764 0.5764 0.5764 0.5756 0.5756 0.5740 0.5740 0.5732 0.5740 0.5740 0.5740 0.5740 0.5756 0.5764 0.5764 0.5748 0.5732 0.5709 0.5693 0.5677 0.5670 0.5677 0.5685 0.5685 0.5685 0.5677 0.5662 0.5654 0.5630 0.5607 0.5576 0.5560 0.5568 0.5576 0.5560 0.5544 0.5521 0.5497 0.5474 0.5466 0.5458 0.5450 0.5450 0.5435 0.5419 0.5403 0.5388 0.5372 0.5372 0.5372 0.5356 0.5348 0.5348 0.5364 0.5388 0.5395 0.5395 0.5403 0.5403 0.5403 0.5403 0.5395 0.5388 0.5380 0.5380 0.5372 0.5364 0.5364 0.5356 0.5348 0.5348 0.5333 0.5309 0.5286 0.5278 0.5262 0.5255 0.5247 0.5239 0.5239 0.5239 0.5223 0.5223 0.5215 0.5215 0.5215 0.5215 0.5200 0.5200 0.5208 0.5223 0.5231 0.5239 0.5239 0.5239 0.5239 0.5239 0.5239 0.5239 0.5239 0.5239 0.5239 0.5239 0.5239 0.5239 0.5223 0.5223 0.5215 0.5208 0.5208 0.5208 0.5200 0.5184 0.5176 0.5176 0.5184 0.5192 0.5200 0.5200 0.5192 0.5192 0.5192 0.5192 0.5184 0.5176 0.5176 0.5176 0.5192 0.5208 0.5223 0.5231 0.5239 0.5239 0.5239 0.5231 0.5231 0.5231 0.5231 0.5231 0.5239 0.5247 0.5262 0.5278 0.5286 0.5278 0.5270 0.5270 0.5270 0.5262 0.5270 0.5262 0.5262 0.5255 0.5247 0.5239 0.5239 0.5231 0.5231 0.5231 0.5231 0.5223 0.5215 0.5215 0.5208 0.5192 0.5184 0.5176 0.5168 0.5153 0.5145 0.5145 0.5153 0.5153 0.5153 0.5153 0.5145 0.5145 0.5137 0.5129
0.6100 0.6108 0.6108 0.6108 0.6100 0.6069 0.6053 0.6053 0.6045 0.6038 0.6022 0.5998 0.5975 0.5967 0.5951 0.5928 0.5904 0.5889 0.5873 0.5850 0.5826 0.5795 0.5779 0.5771 0.5764 0.5756 0.5732 0.5724 0.5709 0.5693 0.5701 0.5701 0.5717 0.5732 0.5748 0.5756 0.5764 0.5771 0.5787 0.5795 0.5810 0.5818 0.5810 0.5795 0.5779 0.5787 0.5795 0.5795 0.5787 0.5771 0.5771 0.5764 0.5756 0.5756 0.5756 0.5764 0.5764 0.5748 0.5748 0.5756 0.5756 0.5756 0.5756 0.5748 0.5748 0.5756 0.5756 0.5748 0.5740 0.5732 0.5732 0.5732 0.5732 0.5740 0.5748 0.5756 0.5764 0.5756 0.5724 0.5701 0.5685 0.5670 0.5654 0.5646 0.5654 0.5654 0.5638 0.5630 0.5623 0.5623 0.5615 0.5599 0.5568 0.5560 0.5544 0.5529 0.5521 0.5521 0.5505 0.5482 0.5466 0.5450 0.5435 0.5419 0.5411 0.5403 0.5388 0.5380 0.5372 0.5364 0.5364 0.5356 0.5341 0.5333 0.5341 0.5348 0.5372 0.5388 0.5388 0.5388 0.5388 0.5388 0.5380 0.5372 0.5364 0.5356 0.5364 0.5364 0.5364 0.5372 0.5364 0.5356 0.5341 0.5333 0.5317 0.5301 0.5286 0.5270 0.5262 0.5255 0.5247 0.5239 0.5223 0.5215 0.5208 0.5208 0.5215 0.5215 0.5200 0.5192 0.5192 0.5200 0.5215 0.5231 0.5239 0.5239 0.5231 0.5231 0.5223 0.5223 0.5231 0.5231 0.5239 0.5239 0.5231 0.5231 0.5223 0.5215 0.5208 0.5208 0.5208 0.5208 0.5208 0.5192 0.5176 0.5168 0.5168 0.5176 0.5192 0.5200 0.5200 0.5192 0.5184 0.5184 0.5176 0.5168 0.5161 0.5161 0.5176 0.5200 0.5223 0.5239 0.5239 0.5239 0.5247 0.5247 0.5239 0.5231 0.5223 0.5223 0.5215 0.5223 0.5231 0.5247 0.5255 0.5262 0.5262 0.5270 0.5270 0.5270 0.5270 0.5262 0.5262 0.5262 0.5255 0.5247 0.5239 0.5239 0.5239 0.5239 0.5239 0.5223 0.5215 0.5208 0.5208 0.5200 0.5192 0.5184 0.5184 0.5168 0.5153 0.5145 0.5137 0.5137 0.5137 0.5137 0.5137 0.5137 0.5137 0.5137 0.5129
0.6077 0.6077 0.6085 0.6092 0.6077 0.6053 0.6045 0.6030 0.6022 0.6022 0.6014 0.5991 0.5967 0.5944 0.5928 0.5897 0.5881 0.5865 0.5850 0.5842 0.5810 0.5795 0.5764 0.5756 0.5748 0.5740 0.5732 0.5724 0.5709 0.5701 0.5685 0.5677 0.5685 0.5693 0.5717 0.5724 0.5740 0.5756 0.5771 0.5779 0.5787 0.5795 0.5787 0.5771 0.5764 0.5764 0.5779 0.5779 0.5771 0.5764 0.5756 0.5756 0.5748 0.5748 0.5756 0.5748 0.5748 0.5748 0.5748 0.5748 0.5748 0.5748 0.5748 0.5740 0.5740 0.5748 0.5756 0.5748 0.5732 0.5732 0.5724 0.5724 0.5732 0.5740 0.5740 0.5740 0.5740 0.5732 0.5709 0.5677 0.5662 0.5654 0.5630 0.5623 0.5615 0.5615 0.5599 0.5591 0.5607 0.5607 0.5599 0.5583 0.5568 0.5552 0.5521 0.5505 0.5497 0.5489 0.5482 0.5466 0.5450 0.5435 0.5419 0.5403 0.5388 0.5380 0.5372 0.5364 0.5356 0.5356 0.5348 0.5341 0.5333 0.5333 0.5341 0.5348 0.5364 0.5372 0.5372 0.5372 0.5372 0.5372 0.5364 0.5348 0.5341 0.5341 0.5348 0.5348 0.5348 0.5348 0.5341 0.5341 0.5325 0.5317 0.5317 0.5301 0.5286 0.5270 0.5270 0.5262 0.5247 0.5231 0.5223 0.5215 0.5208 0.5208 0.5208 0.5200 0.5200 0.5184 0.5184 0.5192 0.5208 0.5215 0.5223 0.5231 0.5231 0.5223 0.5215 0.5215 0.5223 0.5231 0.5231 0.5231 0.5223 0.5208 0.5200 0.5200 0.5192 0.5200 0.5200 0.5200 0.5200 0.5192 0.5176 0.5168 0.5168 0.5168 0.5176 0.5192 0.5192 0.5192 0.5184 0.5176 0.5168 0.5161 0.5153 0.5153 0.5184 0.5215 0.5231 0.5239 0.5239 0.5239 0.5247 0.5247 0.5247 0.5239 0.5223 0.5223 0.5215 0.5215 0.5215 0.5231 0.5247 0.5247 0.5262 0.5270 0.5270 0.5270 0.5262 0.5255 0.5255 0.5255 0.5247 0.5247 0.5239 0.5239 0.5247 0.5247 0.5239 0.5215 0.5208 0.5208 0.5208 0.5200 0.5192 0.5184 0.5184 0.5168 0.5153 0.5145 0.5137 0.5137 0.5129 0.5121 0.5121 0.5121 0.5129 0.5129 0.5129
0.6045 0.6061 0.6061 0.6061 0.6061 0.6053 0.6038 0.6014 0.5998 0.5991 0.5983 0.5983 0.5959 0.5928 0.5904 0.5881 0.5857 0.5842 0.5834 0.5818 0.5795 0.5771 0.5756 0.5740 0.5732 0.5724 0.5717 0.5717 0.5701 0.5677 0.5662 0.5654 0.5662 0.5670 0.5693 0.5709 0.5724 0.5740 0.5748 0.5756 0.5756 0.5771 0.5764 0.5756 0.5748 0.5756 0.5756 0.5764 0.5764 0.5764 0.5756 0.5756 0.5748 0.5748 0.5740 0.5740 0.5732 0.5740 0.5740 0.5748 0.5756 0.5756 0.5748 0.5740 0.5740 0.5740 0.5748 0.5740 0.5724 0.5709 0.5701 0.5701 0.5717 0.5724 0.5724 0.5732 0.5724 0.5709 0.5685 0.5670 0.5646 0.5630 0.5615 0.5607 0.5599 0.5583 0.5576 0.5576 0.5576 0.5576 0.5568 0.5560 0.5560 0.5536 0.5521 0.5497 0.5482 0.5474 0.5466 0.5442 0.5427 0.5419 0.5419 0.5403 0.5380 0.5372 0.5356 0.5348 0.5341 0.5333 0.5333 0.5333 0.5341 0.5341 0.5348 0.5348 0.5356 0.5356 0.5356 0.5356 0.5364 0.5364 0.5356 0.5341 0.5333 0.5333 0.5333 0.5333 0.5325 0.5325 0.5317 0.5317 0.5309 0.5309 0.5301 0.5301 0.5294 0.5278 0.5270 0.5262 0.5255 0.5239 0.5231 0.5223 0.5215 0.5200 0.5192 0.5192 0.5192 0.5192 0.5184 0.5184 0.5184 0.5200 0.5208 0.5215 0.5215 0.5215 0.5208 0.5208 0.5208 0.5215 0.5215 0.5215 0.5200 0.5192 0.5192 0.5192 0.5200 0.5200 0.5200 0.5200 0.5192 0.5192 0.5184 0.5176 0.5176 0.5176 0.5176 0.5184 0.5184 0.5184 0.5184 0.5176 0.5168 0.5153 0.5145 0.5153 0.5176 0.5215 0.5231 0.5247 0.5247 0.5247 0.5247 0.5247 0.5247 0.5239 0.5239 0.5231 0.5215 0.5208 0.5208 0.5215 0.5231 0.5247 0.5247 0.5262 0.5262 0.5255 0.5255 0.5255 0.5262 0.5262 0.5255 0.5247 0.5247 0.5239 0.5239 0.5239 0.5231 0.5215 0.5208 0.5208 0.5200 0.5192 0.5184 0.5176 0.5168 0.5161 0.5153 0.5145 0.5145 0.5129 0.5121 0.5114 0.5114 0.5114 0.5121 0.5137 0.5129
0.6045 0.6053 0.6053 0.6053 0.6045 0.6038 0.6022 0.5998 0.5975 0.5959 0.5944 0.5936 0.5920 0.5904 0.5881 0.5865 0.5850 0.5834 0.5826 0.5810 0.5787 0.5764 0.5748 0.5732 0.5724 0.5717 0.5701 0.5693 0.5670 0.5654 0.5638 0.5638 0.5638 0.5654 0.5670 0.5701 0.5717 0.5724 0.5732 0.5732 0.5732 0.5740 0.5748 0.5748 0.5748 0.5748 0.5756 0.5771 0.5771 0.5771 0.5764 0.5756 0.5748 0.5740 0.5740 0.5732 0.5732 0.5732 0.5740 0.5740 0.5748 0.5748 0.5748 0.5732 0.5724 0.5724 0.5724 0.5717 0.5701 0.5693 0.5685 0.5693 0.5701 0.5709 0.5717 0.5717 0.5717 0.5701 0.5677 0.5662 0.5638 0.5615 0.5599 0.5591 0.5583 0.5560 0.5544 0.5544 0.5536 0.5544 0.5552 0.5544 0.5536 0.5521 0.5505 0.5482 0.5466 0.5450 0.5442 0.5419 0.5403 0.5403 0.5395 0.5380 0.5364 0.5348 0.5341 0.5341 0.5333 0.5325 0.5325 0.5333 0.5333 0.5341 0.5341 0.5341 0.5341 0.5341 0.5341 0.5348 0.5356 0.5348 0.5341 0.5333 0.5325 0.5325 0.5317 0.5317 0.5317 0.5317 0.5317 0.5317 0.5309 0.5301 0.5294 0.5294 0.5294 0.5286 0.5278 0.5278 0.5270 0.5255 0.5239 0.5231 0.5215 0.5192 0.5176 0.5176 0.5184 0.5184 0.5184 0.5176 0.5176 0.5176 0.5184 0.5184 0.5192 0.5200 0.5200 0.5208 0.5208 0.5208 0.5208 0.5208 0.5200 0.5192 0.5192 0.5200 0.5200 0.5208 0.5200 0.5192 0.5192 0.5184 0.5184 0.5176 0.5176 0.5176 0.5168 0.5168 0.5176 0.5176 0.5176 0.5168 0.5168 0.5153 0.5145 0.5145 0.5168 0.5200 0.5231 0.5247 0.5247 0.5247 0.5247 0.5239 0.5239 0.5239 0.5231 0.5231 0.5215 0.5208 0.5208 0.5208 0.5215 0.5223 0.5231 0.5239 0.5239 0.5239 0.5247 0.5255 0.5262 0.5262 0.5255 0.5255 0.5247 0.5247 0.5239 0.5231 0.5231 0.5215 0.5215 0.5208 0.5200 0.5192 0.5176 0.5176 0.5161 0.5153 0.5153 0.5153 0.5145 0.5137 0.5129 0.5121 0.5114 0.5121 0.5129 0.5137 0.5137
0.6038 0.6045 0.6038 0.6030 0.6022 0.6014 0.5998 0.5983 0.5959 0.5944 0.5928 0.5904 0.5897 0.5889 0.5881 0.5857 0.5834 0.5818 0.5810 0.5803 0.5779 0.5756 0.5740 0.5724 0.5709 0.5701 0.5693 0.5677 0.5662 0.5646 0.5630 0.5623 0.5623 0.5630 0.5654 0.5670 0.5685 0.5701 0.5709 0.5709 0.5701 0.5701 0.5717 0.5724 0.5740 0.5756 0.5771 0.5779 0.5787 0.5779 0.5771 0.5764 0.5756 0.5748 0.5748 0.5740 0.5732 0.5740 0.5732 0.5732 0.5732 0.5732 0.5724 0.5717 0.5709 0.5701 0.5693 0.5685 0.5685 0.5677 0.5677 0.5685 0.5693 0.5693 0.5693 0.5701 0.5701 0.5693 0.5677 0.5654 0.5630 0.5607 0.5599 0.5591 0.5568 0.5536 0.5513 0.5513 0.5521 0.5536 0.5544 0.5521 0.5505 0.5489 0.5466 0.5458 0.5442 0.5427 0.5419 0.5403 0.5395 0.5372 0.5364 0.5356 0.5348 0.5341 0.5333 0.5333 0.5333 0.5325 0.5325 0.5325 0.5333 0.5333 0.5333 0.5325 0.5325 0.5325 0.5333 0.5341 0.5333 0.5333 0.5333 0.5325 0.5317 0.5317 0.5309 0.5309 0.5309 0.5309 0.5309 0.5301 0.5294 0.5286 0.5286 0.5286 0.5286 0.5286 0.5286 0.5278 0.5270 0.5255 0.5239 0.5223 0.5208 0.5192 0.5184 0.5176 0.5176 0.5184 0.5184 0.5184 0.5176 0.5168 0.5168 0.5168 0.5176 0.5184 0.5200 0.5208 0.5208 0.5208 0.5208 0.5200 0.5192 0.5192 0.5192 0.5200 0.5208 0.5208 0.5208 0.5200 0.5192 0.5192 0.5192 0.5184 0.5176 0.5176 0.5168 0.5161 0.5168 0.5168 0.5161 0.5161 0.5153 0.5153 0.5153 0.5153 0.5161 0.5184 0.5208 0.5239 0.5247 0.5247 0.5239 0.5239 0.5231 0.5223 0.5223 0.5231 0.5223 0.5215 0.5208 0.5192 0.5200 0.5208 0.5223 0.5231 0.5239 0.5231 0.5239 0.5239 0.5247 0.5247 0.5247 0.5247 0.5247 0.5247 0.5239 0.5239 0.5231 0.5231 0.5223 0.5215 0.5200 0.5184 0.5176 0.5168 0.5161 0.5153 0.5153 0.5153 0.5137 0.5129 0.5129 0.5121 0.5114 0.5114 0.5121 0.5129 0.5129
0.6030 0.6030 0.6022 0.6006 0.5998 0.5991 0.5983 0.5959 0.5944 0.5928 0.5912 0.5897 0.5881 0.5881 0.5857 0.5842 0.5818 0.5795 0.5787 0.5771 0.5756 0.5748 0.5724 0.5701 0.5693 0.5693 0.5685 0.5670 0.5646 0.5630 0.5615 0.5615 0.5607 0.5615 0.5623 0.5638 0.5638 0.5646 0.5670 0.5670 0.5670 0.5677 0.5701 0.5724 0.5748 0.5779 0.5787 0.5795 0.5787 0.5787 0.5779 0.5771 0.5764 0.5764 0.5764 0.5764 0.5748 0.5748 0.5732 0.5717 0.5717 0.5709 0.5701 0.5693 0.5685 0.5677 0.5670 0.5670 0.5670 0.5662 0.5662 0.5662 0.5670 0.5677 0.5670 0.5670 0.5670 0.5670 0.5662 0.5646 0.5630 0.5607 0.5599 0.5591 0.5560 0.5529 0.5505 0.5497 0.5513 0.5513 0.5505 0.5497 0.5482 0.5466 0.5442 0.5435 0.5419 0.5403 0.5388 0.5388 0.5372 0.5356 0.5348 0.5341 0.5341 0.5333 0.5325 0.5333 0.5333 0.5325 0.5325 0.5317 0.5317 0.5325 0.5325 0.5325 0.5325 0.5325 0.5325 0.5325 0.5325 0.5317 0.5317 0.5309 0.5309 0.5309 0.5309 0.5301 0.5301 0.5301 0.5294 0.5278 0.5270 0.5270 0.5270 0.5270 0.5270 0.5278 0.5270 0.5270 0.5255 0.5247 0.5231 0.5215 0.5208 0.5200 0.5192 0.5184 0.5176 0.5176 0.5184 0.5184 0.5176 0.5168 0.5161 0.5161 0.5168 0.5176 0.5192 0.5208 0.5208 0.5208 0.5208 0.5192 0.5184 0.5176 0.5184 0.5200 0.5208 0.5223 0.5223 0.5215 0.5208 0.5208 0.5208 0.5200 0.5192 0.5192 0.5184 0.5168 0.5168 0.5168 0.5161 0.5153 0.5153 0.5153 0.5153 0.5153 0.5161 0.5168 0.5200 0.5231 0.5247 0.5247 0.5239 0.5239 0.5231 0.5223 0.5223 0.5223 0.5223 0.5215 0.5200 0.5192 0.5184 0.5192 0.5208 0.5223 0.5231 0.5231 0.5231 0.5231 0.5231 0.5231 0.5239 0.5239 0.5239 0.5239 0.5231 0.5231 0.5231 0.5231 0.5231 0.5208 0.5192 0.5176 0.5168 0.5161 0.5161 0.5153 0.5145 0.5145 0.5137 0.5129 0.5129 0.5121 0.5114 0.5106 0.5106 0.5114 0.5121
0.6014 0.6014 0.6006 0.5991 0.5983 0.5975 0.5967 0.5951 0.5936 0.5912 0.5904 0.5889 0.5881 0.5857 0.5834 0.5818 0.5803 0.5795 0.5779 0.5756 0.5740 0.5724 0.5717 0.5693 0.5685 0.5685 0.5670 0.5646 0.5630 0.5615 0.5607 0.5607 0.5599 0.5599 0.5607 0.5623 0.5630 0.5630 0.5646 0.5654 0.5670 0.5685 0.5717 0.5740 0.5764 0.5787 0.5795 0.5803 0.5795 0.5787 0.5779 0.5779 0.5779 0.5779 0.5787 0.5779 0.5764 0.5756 0.5732 0.5717 0.5701 0.5693 0.5677 0.5670 0.5662 0.5654 0.5654 0.5654 0.5654 0.5646 0.5638 0.5630 0.5638 0.5646 0.5646 0.5646 0.5654 0.5654 0.5646 0.5638 0.5623 0.5607 0.5583 0.5576 0.5560 0.5536 0.5513 0.5497 0.5489 0.5482 0.5474 0.5466 0.5458 0.5442 0.5419 0.5411 0.5395 0.5388 0.5380 0.5372 0.5356 0.5348 0.5341 0.5348 0.5341 0.5333 0.5325 0.5325 0.5325 0.5317 0.5317 0.5309 0.5309 0.5309 0.5317 0.5317 0.5325 0.5317 0.5317 0.5309 0.5317 0.5309 0.5301 0.5301 0.5301 0.5301 0.5294 0.5294 0.5286 0.5278 0.5278 0.5270 0.5262 0.5262 0.5262 0.5262 0.5255 0.5247 0.5239 0.5239 0.5239 0.5231 0.5223 0.5208 0.5200 0.5200 0.5192 0.5192 0.5184 0.5176 0.5176 0.5176 0.5176 0.5161 0.5153 0.5161 0.5168 0.5176 0.5192 0.5208 0.5208 0.5200 0.5200 0.5192 0.5184 0.5184 0.5192 0.5200 0.5215 0.5231 0.5239 0.5231 0.5223 0.5223 0.5223 0.5215 0.5215 0.5200 0.5192 0.5176 0.5176 0.5168 0.5161 0.5153 0.5145 0.5145 0.5153 0.5161 0.5168 0.5184 0.5200 0.5223 0.5231 0.5239 0.5239 0.5239 0.5231 0.5223 0.5215 0.5215 0.5215 0.5208 0.5200 0.5192 0.5184 0.5176 0.5176 0.5192 0.5208 0.5215 0.5215 0.5215 0.5215 0.5223 0.5223 0.5231 0.5239 0.5239 0.5223 0.5223 0.5223 0.5231 0.5223 0.5208 0.5192 0.5176 0.5168 0.5168 0.5161 0.5153 0.5145 0.5145 0.5129 0.5129 0.5129 0.5129 0.5121 0.5106 0.5106 0.5106 0.5106
0.6006 0.6006 0.5998 0.5991 0.5983 0.5967 0.5967 0.5951 0.5928 0.5912 0.5904 0.5897 0.5881 0.5850 0.5818 0.5803 0.5795 0.5779 0.5771 0.5756 0.5748 0.5740 0.5717 0.5693 0.5685 0.5670 0.5670 0.5654 0.5630 0.5615 0.5607 0.5599 0.5591 0.5583 0.5599 0.5607 0.5615 0.5615 0.5630 0.5654 0.5670 0.5693 0.5717 0.5740 0.5764 0.5779 0.5795 0.5810 0.5810 0.5803 0.5803 0.5795 0.5803 0.5803 0.5795 0.5779 0.5764 0.5740 0.5724 0.5701 0.5693 0.5677 0.5670 0.5662 0.5646 0.5638 0.5638 0.5638 0.5646 0.5654 0.5638 0.5623 0.5615 0.5623 0.5630 0.5638 0.5646 0.5646 0.5638 0.5630 0.5607 0.5591 0.5576 0.5560 0.5544 0.5529 0.5497 0.5474 0.5458 0.5450 0.5442 0.5435 0.5435 0.5419 0.5403 0.5380 0.5380 0.5372 0.5364 0.5356 0.5348 0.5341 0.5341 0.5341 0.5341 0.5325 0.5317 0.5317 0.5317 0.5309 0.5301 0.5301 0.5301 0.5301 0.5301 0.5301 0.5309 0.5309 0.5309 0.5309 0.5309 0.5301 0.5294 0.5286 0.5286 0.5286 0.5286 0.5278 0.5270 0.5262 0.5262 0.5255 0.5255 0.5262 0.5262 0.5255 0.5239 0.5231 0.5231 0.5231 0.5223 0.5215 0.5208 0.5200 0.5200 0.5200 0.5200 0.5192 0.5184 0.5176 0.5176 0.5184 0.5184 0.5176 0.5161 0.5161 0.5168 0.5192 0.5208 0.5215 0.5208 0.5192 0.5192 0.5192 0.5192 0.5192 0.5208 0.5215 0.5223 0.5239 0.5247 0.5247 0.5231 0.5231 0.5231 0.5223 0.5208 0.5200 0.5192 0.5184 0.5176 0.5176 0.5176 0.5161 0.5145 0.5137 0.5137 0.5145 0.5153 0.5168 0.5192 0.5208 0.5215 0.5223 0.5231 0.5223 0.5223 0.5215 0.5208 0.5208 0.5208 0.5200 0.5200 0.5192 0.5184 0.5176 0.5176 0.5176 0.5192 0.5208 0.5208 0.5208 0.5208 0.5208 0.5223 0.5223 0.5231 0.5215 0.5208 0.5208 0.5215 0.5215 0.5215 0.5208 0.5200 0.5184 0.5184 0.5176 0.5176 0.5168 0.5161 0.5153 0.5145 0.5137 0.5137 0.5129 0.5121 0.5106 0.5098 0.5098 0.5098
0.5998 0.6006 0.6006 0.5998 0.5991 0.5975 0.5959 0.5951 0.5928 0.5920 0.5912 0.5912 0.5889 0.5850 0.5834 0.5818 0.5803 0.5787 0.5779 0.5779 0.5779 0.5764 0.5740 0.5717 0.5701 0.5701 0.5685 0.5670 0.5654 0.5630 0.5615 0.5599 0.5583 0.5576 0.5583 0.5583 0.5591 0.5599 0.5607 0.5638 0.5662 0.5677 0.5701 0.5724 0.5756 0.5771 0.5787 0.5803 0.5803 0.5810 0.5810 0.5818 0.5810 0.5803 0.5795 0.5771 0.5732 0.5709 0.5693 0.5685 0.5677 0.5670 0.5662 0.5654 0.5646 0.5630 0.5623 0.5630 0.5646 0.5654 0.5646 0.5615 0.5599 0.5599 0.5607 0.5630 0.5638 0.5638 0.5630 0.5615 0.5599 0.5583 0.5560 0.5544 0.5521 0.5489 0.5466 0.5450 0.5442 0.5427 0.5419 0.5411 0.5403 0.5388 0.5372 0.5372 0.5372 0.5372 0.5356 0.5348 0.5348 0.5348 0.5341 0.5341 0.5333 0.5325 0.5317 0.5309 0.5309 0.5301 0.5294 0.5294 0.5294 0.5294 0.5294 0.5294 0.5294 0.5301 0.5309 0.5301 0.5294 0.5286 0.5278 0.5278 0.5278 0.5278 0.5278 0.5278 0.5270 0.5255 0.5247 0.5247 0.5247 0.5255 0.5255 0.5247 0.5239 0.5231 0.5223 0.5223 0.5223 0.5208 0.5200 0.5192 0.5192 0.5200 0.5192 0.5184 0.5168 0.5161 0.5168 0.5176 0.5184 0.5176 0.5161 0.5153 0.5161 0.5192 0.5208 0.5208 0.5200 0.5184 0.5184 0.5176 0.5184 0.5192 0.5200 0.5215 0.5215 0.5231 0.5239 0.5239 0.5239 0.5231 0.5223 0.5215 0.5200 0.5200 0.5200 0.5192 0.5184 0.5184 0.5184 0.5168 0.5145 0.5129 0.5129 0.5129 0.5137 0.5153 0.5168 0.5176 0.5184 0.5200 0.5215 0.5215 0.5215 0.5208 0.5200 0.5200 0.5200 0.5200 0.5200 0.5200 0.5192 0.5184 0.5176 0.5176 0.5184 0.5200 0.5192 0.5192 0.5192 0.5200 0.5215 0.5223 0.5208 0.5200 0.5192 0.5200 0.5200 0.5208 0.5208 0.5208 0.5208 0.5200 0.5192 0.5184 0.5176 0.5161 0.5161 0.5153 0.5153 0.5145 0.5137 0.5129 0.5114 0.5106 0.5090 0.5090 0.5090
0.5991 0.5998 0.5991 0.5991 0.5983 0.5975 0.5967 0.5959 0.5944 0.5928 0.5920 0.5912 0.5897 0.5881 0.5865 0.5850 0.5834 0.5810 0.5803 0.5795 0.5787 0.5771 0.5756 0.5748 0.5748 0.5724 0.5701 0.5685 0.5670 0.5646 0.5623 0.5607 0.5591 0.5576 0.5568 0.5568 0.5568 0.5583 0.5607 0.5623 0.5638 0.5654 0.5670 0.5701 0.5732 0.5756 0.5764 0.5779 0.5779 0.5795 0.5803 0.5810 0.5803 0.5795 0.5787 0.5756 0.5717 0.5693 0.5677 0.5677 0.5662 0.5654 0.5654 0.5646 0.5630 0.5615 0.5607 0.5615 0.5630 0.5630 0.5615 0.5591 0.5576 0.5583 0.5599 0.5623 0.5630 0.5630 0.5623 0.5615 0.5599 0.5560 0.5536 0.5505 0.5482 0.5458 0.5442 0.5427 0.5419 0.5411 0.5403 0.5395 0.5380 0.5372 0.5364 0.5364 0.5372 0.5364 0.5356 0.5348 0.5348 0.5341 0.5341 0.5333 0.5333 0.5325 0.5317 0.5309 0.5301 0.5294 0.5294 0.5294 0.5286 0.5294 0.5286 0.5286 0.5294 0.5301 0.5301 0.5294 0.5278 0.5270 0.5270 0.5270 0.5278 0.5278 0.5270 0.5270 0.5270 0.5255 0.5247 0.5239 0.5239 0.5247 0.5247 0.5239 0.5231 0.5223 0.5215 0.5215 0.5215 0.5215 0.5208 0.5200 0.5192 0.5192 0.5184 0.5176 0.5161 0.5153 0.5161 0.5168 0.5176 0.5176 0.5161 0.5145 0.5153 0.5168 0.5192 0.5192 0.5184 0.5176 0.5168 0.5161 0.5168 0.5184 0.5192 0.5200 0.5208 0.5215 0.5223 0.5231 0.5239 0.5231 0.5223 0.5215 0.5215 0.5215 0.5215 0.5200 0.5192 0.5184 0.5176 0.5176 0.5153 0.5137 0.5137 0.5129 0.5137 0.5145 0.5153 0.5161 0.5168 0.5184 0.5200 0.5208 0.5208 0.5200 0.5192 0.5192 0.5200 0.5200 0.5200 0.5192 0.5184 0.5184 0.5176 0.5168 0.5176 0.5176 0.5176 0.5176 0.5184 0.5200 0.5215 0.5208 0.5200 0.5192 0.5192 0.5192 0.5200 0.5208 0.5208 0.5215 0.5215 0.5208 0.5200 0.5184 0.5168 0.5153 0.5145 0.5145 0.5145 0.5145 0.5137 0.5121 0.5114 0.5098 0.5090 0.5090 0.5090
0.5967 0.5975 0.5975 0.5975 0.5975 0.5975 0.5975 0.5967 0.5951 0.5936 0.5920 0.5920 0.5904 0.5889 0.5873 0.5865 0.5850 0.5834 0.5810 0.5795 0.5787 0.5771 0.5771 0.5764 0.5764 0.5740 0.5717 0.5693 0.5685 0.5662 0.5638 0.5615 0.5591 0.5560 0.5552 0.5552 0.5560 0.5568 0.5591 0.5599 0.5615 0.5630 0.5654 0.5677 0.5701 0.5717 0.5732 0.5740 0.5756 0.5764 0.5779 0.5779 0.5787 0.5779 0.5771 0.5748 0.5717 0.5693 0.5677 0.5662 0.5654 0.5638 0.5638 0.5623 0.5615 0.5591 0.5591 0.5599 0.5599 0.5583 0.5576 0.5568 0.5560 0.5568 0.5583 0.5607 0.5615 0.5615 0.5607 0.5599 0.5576 0.5536 0.5497 0.5474 0.5450 0.5435 0.5427 0.5419 0.5403 0.5395 0.5395 0.5388 0.5372 0.5364 0.5356 0.5348 0.5341 0.5341 0.5341 0.5341 0.5341 0.5341 0.5333 0.5325 0.5325 0.5325 0.5317 0.5301 0.5294 0.5286 0.5278 0.5278 0.5278 0.5278 0.5278 0.5278 0.5278 0.5286 0.5286 0.5278 0.5270 0.5262 0.5262 0.5262 0.5270 0.5270 0.5270 0.5270 0.5262 0.5255 0.5247 0.5239 0.5239 0.5239 0.5239 0.5231 0.5223 0.5208 0.5208 0.5208 0.5208 0.5215 0.5215 0.5208 0.5200 0.5184 0.5184 0.5176 0.5161 0.5153 0.5153 0.5153 0.5153 0.5161 0.5153 0.5145 0.5145 0.5161 0.5176 0.5184 0.5184 0.5176 0.5168 0.5161 0.5168 0.5176 0.5184 0.5192 0.5200 0.5208 0.5215 0.5231 0.5231 0.5231 0.5223 0.5223 0.5223 0.5223 0.5215 0.5208 0.5192 0.5184 0.5184 0.5176 0.5168 0.5161 0.5145 0.5137 0.5129 0.5137 0.5153 0.5153 0.5168 0.5176 0.5192 0.5200 0.5200 0.5192 0.5192 0.5192 0.5200 0.5192 0.5192 0.5192 0.5192 0.5184 0.5168 0.5161 0.5153 0.5153 0.5161 0.5176 0.5192 0.5200 0.5208 0.5208 0.5200 0.5192 0.5200 0.5200 0.5200 0.5200 0.5208 0.5208 0.5208 0.5192 0.5184 0.5168 0.5161 0.5153 0.5145 0.5137 0.5137 0.5137 0.5129 0.5114 0.5106 0.5098 0.5090 0.5082 0.5098
0.5951 0.5959 0.5951 0.5951 0.5959 0.5967 0.5959 0.5959 0.5928 0.5912 0.5897 0.5881 0.5881 0.5873 0.5865 0.5857 0.5850 0.5834 0.5818 0.5803 0.5787 0.5771 0.5764 0.5764 0.5764 0.5748 0.5724 0.5709 0.5693 0.5677 0.5646 0.5630 0.5599 0.5568 0.5552 0.5552 0.5552 0.5560 0.5560 0.5568 0.5576 0.5607 0.5630 0.5654 0.5662 0.5677 0.5693 0.5709 0.5724 0.5740 0.5748 0.5756 0.5764 0.5764 0.5756 0.5740 0.5717 0.5701 0.5670 0.5654 0.5638 0.5630 0.5623 0.5615 0.5607 0.5599 0.5591 0.5591 0.5583 0.5568 0.5560 0.5560 0.5552 0.5552 0.5568 0.5576 0.5583 0.5583 0.5576 0.5568 0.5536 0.5505 0.5482 0.5466 0.5450 0.5435 0.5411 0.5403 0.5395 0.5388 0.5388 0.5372 0.5364 0.5356 0.5341 0.5333 0.5325 0.5317 0.5325 0.5333 0.5333 0.5325 0.5317 0.5317 0.5317 0.5309 0.5301 0.5294 0.5294 0.5286 0.5270 0.5262 0.5255 0.5262 0.5270 0.5262 0.5262 0.5270 0.5262 0.5270 0.5270 0.5262 0.5262 0.5262 0.5262 0.5262 0.5270 0.5270 0.5270 0.5262 0.5262 0.5255 0.5247 0.5247 0.5231 0.5223 0.5208 0.5200 0.5200 0.5200 0.5208 0.5208 0.5208 0.5208 0.5200 0.5192 0.5184 0.5176 0.5168 0.5161 0.5153 0.5153 0.5153 0.5153 0.5145 0.5145 0.5145 0.5153 0.5168 0.5168 0.5168 0.5161 0.5161 0.5161 0.5161 0.5176 0.5176 0.5184 0.5184 0.5200 0.5215 0.5231 0.5239 0.5239 0.5231 0.5231 0.5223 0.5223 0.5215 0.5208 0.5200 0.5192 0.5184 0.5184 0.5176 0.5153 0.5145 0.5137 0.5129 0.5129 0.5145 0.5153 0.5161 0.5176 0.5184 0.5192 0.5192 0.5192 0.5200 0.5200 0.5200 0.5192 0.5192 0.5192 0.5192 0.5192 0.5176 0.5161 0.5153 0.5153 0.5161 0.5184 0.5200 0.5208 0.5215 0.5208 0.5208 0.5208 0.5208 0.5208 0.5208 0.5208 0.5200 0.5200 0.5184 0.5168 0.5161 0.5161 0.5161 0.5168 0.5153 0.5137 0.5137 0.5137 0.5129 0.5114 0.5106 0.5098 0.5090 0.5082 0.5090
