0.1449 0.1449 0.1449 0.1449 0.1464 0.1472 0.1480 0.1488 0.1496 0.1488 0.1488 0.1496 0.1504 0.1511 0.1496 0.1488 0.1480 0.1480 0.1480 0.1488 0.1496 0.1504 0.1519 0.1527 0.1551 0.1574 0.1582 0.1574 0.1566 0.1566 0.1566 0.1574 0.1582 0.1574 0.1574 0.1582 0.1590 0.1597 0.1605 0.1621 0.1629 0.1637 0.1637 0.1637 0.1652 0.1660 0.1691 0.1738 0.1801 0.1864 0.1926 0.1958 0.1950 0.1950 0.1942 0.1950 0.1958 0.1981 0.2013 0.2060 0.2091 0.2106 0.2114 0.2106 0.2099 0.2083 0.2067 0.2044 0.2020 0.2013 0.2020 0.2052 0.2075 0.2075 0.2067 0.2060 0.2067 0.2083 0.2099 0.2091 0.2099 0.2114 0.2146 0.2185 0.2240 0.2271 0.2279 0.2263 0.2279 0.2271 0.2263 0.2247 0.2240 0.2240 0.2200 0.2177 0.2169 0.2208 0.2255 0.2302 0.2310 0.2302 0.2279 0.2240 0.2200 0.2169 0.2153 0.2138 0.2122 0.2122 0.2122 0.2130 0.2106 0.2075 0.2044 0.2028 0.2028 0.2028 0.2036 0.2036 0.2036 0.2036 0.2067 0.2114 0.2146 0.2161 0.2161 0.2161 0.2169 0.2169 0.2161 0.2138 0.2114 0.2114 0.2106 0.2106 0.2122 0.2138 0.2138 0.2153 0.2193 0.2240 0.2255 0.2255 0.2255 0.2279 0.2302 0.2310 0.2302 0.2302 0.2310 0.2326 0.2334 0.2341 0.2349 0.2349 0.2326 0.2310 0.2334 0.2381 0.2435 0.2475 0.2498 0.2522 0.2553 0.2600 0.2616 0.2631 0.2655 0.2694 0.2725 0.2764 0.2788 0.2819 0.2835 0.2850 0.2858 0.2882 0.2897 0.2921 0.2952 0.2984 0.2999 0.3007 0.3007 0.3046 0.3109 0.3187 0.3242 0.3297 0.3336 0.3359 0.3367 0.3359 0.3344 0.3312 0.3289 0.3273 0.3258 0.3242 0.3226 0.3218 0.3226 0.3234 0.3250 0.3265 0.3289 0.3328 0.3367 0.3391 0.3414 0.3375 0.3336 0.3312 0.3281 0.3250 0.3242 0.3265 0.3265 0.3250 0.3226 0.3179 0.3132 0.3093 0.3070 0.3046 0.3054 0.3078 0.3101 0.3132 0.3156 0.3187 0.3218 0.3281 0.3344 0.3383 0.3399 0.3430 0.3453 0.3446 0.3461
0.1425 0.1433 0.1441 0.1457 0.1480 0.1496 0.1511 0.1511 0.1527 0.1527 0.1527 0.1535 0.1535 0.1527 0.1519 0.1504 0.1496 0.1480 0.1472 0.1480 0.1504 0.1535 0.1566 0.1590 0.1613 0.1621 0.1621 0.1605 0.1597 0.1590 0.1590 0.1590 0.1590 0.1590 0.1590 0.1590 0.1590 0.1590 0.1590 0.1605 0.1613 0.1613 0.1621 0.1621 0.1629 0.1644 0.1660 0.1699 0.1762 0.1817 0.1864 0.1887 0.1887 0.1887 0.1887 0.1887 0.1903 0.1934 0.1989 0.2036 0.2052 0.2060 0.2052 0.2052 0.2044 0.2028 0.2013 0.1989 0.1966 0.1966 0.1981 0.2005 0.2020 0.2028 0.2028 0.2005 0.2013 0.2044 0.2052 0.2052 0.2060 0.2083 0.2130 0.2185 0.2216 0.2224 0.2224 0.2224 0.2232 0.2240 0.2224 0.2208 0.2193 0.2169 0.2146 0.2114 0.2122 0.2138 0.2185 0.2216 0.2232 0.2232 0.2216 0.2185 0.2138 0.2099 0.2075 0.2067 0.2060 0.2060 0.2060 0.2044 0.2028 0.2013 0.1997 0.1997 0.2005 0.2020 0.2044 0.2052 0.2052 0.2075 0.2122 0.2161 0.2200 0.2224 0.2240 0.2247 0.2255 0.2247 0.2224 0.2193 0.2185 0.2185 0.2177 0.2177 0.2185 0.2185 0.2161 0.2161 0.2177 0.2208 0.2216 0.2216 0.2216 0.2232 0.2255 0.2255 0.2247 0.2247 0.2255 0.2271 0.2279 0.2294 0.2302 0.2310 0.2302 0.2310 0.2341 0.2396 0.2443 0.2490 0.2522 0.2553 0.2608 0.2639 0.2655 0.2670 0.2694 0.2733 0.2780 0.2803 0.2827 0.2835 0.2850 0.2866 0.2874 0.2882 0.2897 0.2937 0.2976 0.3007 0.3007 0.3007 0.3015 0.3031 0.3070 0.3140 0.3187 0.3226 0.3265 0.3289 0.3305 0.3312 0.3297 0.3265 0.3250 0.3242 0.3234 0.3211 0.3195 0.3195 0.3195 0.3211 0.3226 0.3226 0.3242 0.3273 0.3320 0.3375 0.3406 0.3414 0.3406 0.3406 0.3367 0.3312 0.3305 0.3312 0.3312 0.3305 0.3289 0.3265 0.3211 0.3171 0.3132 0.3117 0.3117 0.3148 0.3187 0.3226 0.3258 0.3289 0.3328 0.3383 0.3453 0.3500 0.3516 0.3540 0.3563 0.3587 0.3602
0.1417 0.1433 0.1457 0.1488 0.1519 0.1535 0.1551 0.1566 0.1582 0.1597 0.1590 0.1590 0.1597 0.1597 0.1582 0.1558 0.1527 0.1519 0.1504 0.1519 0.1551 0.1597 0.1644 0.1684 0.1684 0.1684 0.1676 0.1676 0.1668 0.1668 0.1660 0.1652 0.1652 0.1644 0.1644 0.1644 0.1637 0.1613 0.1605 0.1597 0.1605 0.1613 0.1621 0.1621 0.1629 0.1644 0.1660 0.1684 0.1715 0.1746 0.1778 0.1809 0.1825 0.1832 0.1840 0.1872 0.1911 0.1950 0.1989 0.1997 0.2005 0.1997 0.2005 0.2005 0.1997 0.1981 0.1958 0.1934 0.1911 0.1903 0.1919 0.1934 0.1950 0.1958 0.1966 0.1966 0.1966 0.1973 0.1989 0.2005 0.2013 0.2052 0.2114 0.2153 0.2169 0.2177 0.2177 0.2177 0.2169 0.2169 0.2161 0.2146 0.2122 0.2099 0.2075 0.2067 0.2067 0.2075 0.2106 0.2138 0.2153 0.2153 0.2146 0.2122 0.2083 0.2052 0.2036 0.2028 0.2013 0.2005 0.1989 0.1981 0.1981 0.1981 0.1989 0.1989 0.2005 0.2028 0.2044 0.2075 0.2075 0.2122 0.2153 0.2169 0.2208 0.2263 0.2294 0.2310 0.2318 0.2310 0.2294 0.2287 0.2279 0.2271 0.2263 0.2255 0.2263 0.2247 0.2208 0.2169 0.2161 0.2169 0.2177 0.2185 0.2193 0.2200 0.2216 0.2224 0.2216 0.2216 0.2232 0.2247 0.2263 0.2271 0.2279 0.2287 0.2287 0.2310 0.2357 0.2420 0.2475 0.2514 0.2545 0.2592 0.2639 0.2670 0.2686 0.2694 0.2709 0.2733 0.2780 0.2827 0.2835 0.2835 0.2843 0.2858 0.2866 0.2866 0.2890 0.2921 0.2960 0.2968 0.2976 0.2968 0.2976 0.3007 0.3046 0.3109 0.3148 0.3187 0.3211 0.3218 0.3234 0.3226 0.3218 0.3187 0.3179 0.3195 0.3171 0.3156 0.3148 0.3148 0.3164 0.3179 0.3187 0.3203 0.3211 0.3242 0.3281 0.3320 0.3359 0.3414 0.3422 0.3430 0.3414 0.3383 0.3352 0.3328 0.3312 0.3297 0.3305 0.3297 0.3273 0.3250 0.3218 0.3179 0.3171 0.3195 0.3250 0.3281 0.3312 0.3367 0.3414 0.3461 0.3532 0.3587 0.3634 0.3665 0.3712 0.3712 0.3712
0.1417 0.1449 0.1504 0.1543 0.1566 0.1574 0.1597 0.1629 0.1652 0.1644 0.1644 0.1652 0.1668 0.1684 0.1660 0.1637 0.1605 0.1597 0.1597 0.1613 0.1644 0.1676 0.1731 0.1738 0.1754 0.1754 0.1746 0.1731 0.1731 0.1738 0.1746 0.1762 0.1754 0.1738 0.1731 0.1715 0.1715 0.1699 0.1660 0.1637 0.1644 0.1652 0.1652 0.1637 0.1629 0.1637 0.1652 0.1660 0.1676 0.1691 0.1715 0.1731 0.1754 0.1778 0.1801 0.1848 0.1903 0.1934 0.1926 0.1934 0.1942 0.1950 0.1950 0.1950 0.1942 0.1926 0.1895 0.1872 0.1840 0.1832 0.1848 0.1872 0.1887 0.1903 0.1903 0.1903 0.1903 0.1911 0.1919 0.1934 0.1966 0.2020 0.2060 0.2091 0.2106 0.2114 0.2114 0.2099 0.2099 0.2106 0.2122 0.2106 0.2067 0.2028 0.2013 0.1997 0.1989 0.2005 0.2036 0.2060 0.2067 0.2083 0.2083 0.2067 0.2044 0.2020 0.2005 0.1997 0.1981 0.1973 0.1973 0.1989 0.1997 0.1997 0.2005 0.2005 0.2020 0.2052 0.2091 0.2130 0.2130 0.2169 0.2193 0.2208 0.2255 0.2310 0.2357 0.2373 0.2373 0.2373 0.2373 0.2381 0.2373 0.2349 0.2341 0.2326 0.2302 0.2279 0.2232 0.2193 0.2177 0.2169 0.2185 0.2208 0.2216 0.2224 0.2224 0.2224 0.2232 0.2232 0.2247 0.2255 0.2271 0.2287 0.2302 0.2310 0.2326 0.2357 0.2404 0.2467 0.2522 0.2569 0.2600 0.2639 0.2678 0.2702 0.2709 0.2717 0.2725 0.2733 0.2764 0.2788 0.2803 0.2811 0.2819 0.2835 0.2843 0.2843 0.2858 0.2866 0.2882 0.2897 0.2913 0.2929 0.2944 0.2984 0.3038 0.3085 0.3132 0.3156 0.3164 0.3171 0.3179 0.3164 0.3148 0.3132 0.3125 0.3125 0.3109 0.3101 0.3109 0.3109 0.3117 0.3140 0.3156 0.3171 0.3211 0.3242 0.3265 0.3297 0.3336 0.3375 0.3383 0.3383 0.3391 0.3383 0.3359 0.3336 0.3297 0.3281 0.3289 0.3297 0.3297 0.3297 0.3273 0.3258 0.3258 0.3265 0.3289 0.3312 0.3352 0.3399 0.3453 0.3516 0.3571 0.3634 0.3688 0.3743 0.3806 0.3821 0.3806
0.1449 0.1504 0.1558 0.1590 0.1621 0.1644 0.1676 0.1691 0.1707 0.1723 0.1723 0.1738 0.1762 0.1754 0.1738 0.1723 0.1707 0.1707 0.1715 0.1731 0.1754 0.1801 0.1809 0.1817 0.1809 0.1801 0.1778 0.1778 0.1801 0.1825 0.1848 0.1864 0.1840 0.1832 0.1817 0.1801 0.1801 0.1778 0.1746 0.1738 0.1731 0.1731 0.1715 0.1684 0.1660 0.1660 0.1660 0.1660 0.1668 0.1668 0.1676 0.1684 0.1699 0.1723 0.1746 0.1793 0.1856 0.1872 0.1872 0.1872 0.1879 0.1887 0.1887 0.1887 0.1879 0.1856 0.1832 0.1801 0.1793 0.1793 0.1801 0.1809 0.1832 0.1840 0.1840 0.1848 0.1864 0.1872 0.1872 0.1887 0.1919 0.1966 0.2005 0.2020 0.2036 0.2036 0.2036 0.2028 0.2036 0.2067 0.2075 0.2052 0.2013 0.1981 0.1958 0.1934 0.1926 0.1950 0.1981 0.1997 0.1997 0.2013 0.2020 0.2013 0.1989 0.1973 0.1973 0.1973 0.1966 0.1958 0.1997 0.2013 0.2036 0.2036 0.2036 0.2044 0.2044 0.2075 0.2130 0.2169 0.2169 0.2216 0.2263 0.2287 0.2318 0.2365 0.2404 0.2435 0.2451 0.2451 0.2467 0.2459 0.2443 0.2420 0.2404 0.2373 0.2341 0.2326 0.2294 0.2279 0.2263 0.2255 0.2263 0.2271 0.2287 0.2287 0.2271 0.2263 0.2287 0.2294 0.2302 0.2310 0.2334 0.2365 0.2396 0.2412 0.2435 0.2459 0.2490 0.2529 0.2576 0.2623 0.2655 0.2686 0.2709 0.2717 0.2717 0.2725 0.2733 0.2733 0.2741 0.2749 0.2764 0.2780 0.2788 0.2803 0.2803 0.2803 0.2811 0.2811 0.2819 0.2843 0.2866 0.2890 0.2929 0.2976 0.3015 0.3062 0.3093 0.3117 0.3132 0.3140 0.3125 0.3109 0.3085 0.3070 0.3078 0.3078 0.3062 0.3062 0.3070 0.3085 0.3093 0.3109 0.3132 0.3171 0.3211 0.3234 0.3265 0.3289 0.3305 0.3312 0.3320 0.3328 0.3352 0.3352 0.3328 0.3305 0.3273 0.3258 0.3250 0.3273 0.3297 0.3320 0.3328 0.3336 0.3344 0.3336 0.3336 0.3359 0.3391 0.3430 0.3493 0.3555 0.3626 0.3673 0.3720 0.3774 0.3829 0.3861 0.3861
0.1511 0.1558 0.1597 0.1629 0.1668 0.1699 0.1707 0.1723 0.1754 0.1785 0.1801 0.1809 0.1825 0.1825 0.1832 0.1817 0.1809 0.1817 0.1832 0.1848 0.1879 0.1887 0.1895 0.1887 0.1879 0.1872 0.1856 0.1856 0.1872 0.1887 0.1919 0.1942 0.1934 0.1926 0.1911 0.1911 0.1903 0.1879 0.1848 0.1825 0.1809 0.1778 0.1746 0.1715 0.1691 0.1684 0.1676 0.1676 0.1676 0.1668 0.1660 0.1668 0.1676 0.1691 0.1707 0.1746 0.1778 0.1801 0.1801 0.1817 0.1817 0.1817 0.1809 0.1801 0.1785 0.1785 0.1778 0.1785 0.1793 0.1785 0.1785 0.1793 0.1801 0.1801 0.1809 0.1825 0.1840 0.1856 0.1864 0.1856 0.1879 0.1919 0.1934 0.1942 0.1958 0.1973 0.1973 0.1966 0.1989 0.2005 0.2005 0.1997 0.1973 0.1950 0.1934 0.1919 0.1926 0.1942 0.1950 0.1950 0.1958 0.1958 0.1958 0.1958 0.1958 0.1950 0.1950 0.1958 0.1958 0.1997 0.2028 0.2052 0.2044 0.2060 0.2091 0.2091 0.2091 0.2099 0.2130 0.2177 0.2177 0.2224 0.2279 0.2341 0.2373 0.2420 0.2482 0.2522 0.2545 0.2553 0.2545 0.2514 0.2490 0.2467 0.2443 0.2404 0.2373 0.2365 0.2365 0.2373 0.2365 0.2349 0.2334 0.2334 0.2357 0.2357 0.2341 0.2334 0.2334 0.2357 0.2373 0.2381 0.2396 0.2428 0.2467 0.2498 0.2522 0.2529 0.2545 0.2569 0.2616 0.2662 0.2702 0.2725 0.2733 0.2733 0.2733 0.2733 0.2733 0.2733 0.2725 0.2741 0.2749 0.2749 0.2741 0.2756 0.2764 0.2764 0.2764 0.2772 0.2780 0.2803 0.2827 0.2866 0.2905 0.2952 0.3015 0.3054 0.3085 0.3101 0.3109 0.3093 0.3070 0.3046 0.3015 0.3015 0.3015 0.3023 0.3023 0.3031 0.3046 0.3054 0.3062 0.3085 0.3125 0.3164 0.3203 0.3234 0.3258 0.3273 0.3273 0.3273 0.3273 0.3273 0.3281 0.3281 0.3273 0.3250 0.3234 0.3218 0.3211 0.3234 0.3281 0.3328 0.3352 0.3367 0.3399 0.3422 0.3422 0.3422 0.3438 0.3469 0.3524 0.3594 0.3649 0.3688 0.3727 0.3774 0.3814 0.3845 0.3876
0.1590 0.1629 0.1644 0.1660 0.1691 0.1715 0.1731 0.1754 0.1785 0.1817 0.1832 0.1856 0.1872 0.1895 0.1926 0.1934 0.1942 0.1950 0.1950 0.1958 0.1973 0.1989 0.1966 0.1942 0.1926 0.1934 0.1934 0.1934 0.1942 0.1958 0.1981 0.2005 0.2020 0.2013 0.1997 0.1997 0.1989 0.1958 0.1919 0.1887 0.1848 0.1817 0.1778 0.1746 0.1723 0.1707 0.1699 0.1699 0.1707 0.1699 0.1684 0.1684 0.1684 0.1684 0.1699 0.1715 0.1738 0.1746 0.1754 0.1762 0.1762 0.1754 0.1746 0.1746 0.1754 0.1754 0.1762 0.1785 0.1809 0.1825 0.1825 0.1809 0.1801 0.1801 0.1801 0.1817 0.1832 0.1848 0.1848 0.1856 0.1864 0.1879 0.1879 0.1879 0.1887 0.1911 0.1919 0.1919 0.1926 0.1934 0.1942 0.1942 0.1934 0.1926 0.1926 0.1934 0.1958 0.1966 0.1966 0.1966 0.1966 0.1950 0.1958 0.1973 0.1981 0.1966 0.1973 0.1989 0.2028 0.2067 0.2083 0.2052 0.2052 0.2075 0.2122 0.2153 0.2138 0.2138 0.2153 0.2169 0.2169 0.2208 0.2279 0.2349 0.2404 0.2467 0.2529 0.2576 0.2608 0.2616 0.2584 0.2553 0.2522 0.2498 0.2475 0.2435 0.2404 0.2404 0.2420 0.2443 0.2451 0.2428 0.2420 0.2404 0.2412 0.2420 0.2396 0.2388 0.2388 0.2420 0.2443 0.2459 0.2475 0.2498 0.2537 0.2584 0.2608 0.2616 0.2616 0.2639 0.2678 0.2725 0.2756 0.2764 0.2756 0.2749 0.2749 0.2741 0.2725 0.2709 0.2717 0.2725 0.2725 0.2717 0.2717 0.2725 0.2741 0.2741 0.2733 0.2741 0.2756 0.2788 0.2811 0.2843 0.2890 0.2952 0.3007 0.3054 0.3070 0.3078 0.3070 0.3031 0.3007 0.2999 0.2968 0.2944 0.2937 0.2952 0.2968 0.2976 0.2999 0.3007 0.3031 0.3054 0.3093 0.3156 0.3187 0.3211 0.3226 0.3234 0.3234 0.3234 0.3226 0.3218 0.3226 0.3234 0.3234 0.3211 0.3179 0.3164 0.3171 0.3203 0.3242 0.3297 0.3336 0.3367 0.3422 0.3453 0.3469 0.3477 0.3493 0.3524 0.3571 0.3610 0.3649 0.3681 0.3712 0.3743 0.3782 0.3821 0.3853
0.1621 0.1652 0.1676 0.1691 0.1723 0.1746 0.1754 0.1770 0.1793 0.1825 0.1848 0.1864 0.1903 0.1934 0.1973 0.2013 0.2020 0.2036 0.2044 0.2060 0.2067 0.2060 0.2036 0.2013 0.2013 0.2020 0.2020 0.2020 0.2036 0.2067 0.2083 0.2106 0.2106 0.2106 0.2091 0.2075 0.2060 0.2036 0.1981 0.1926 0.1895 0.1848 0.1809 0.1793 0.1770 0.1746 0.1738 0.1738 0.1746 0.1731 0.1715 0.1707 0.1699 0.1707 0.1699 0.1707 0.1715 0.1715 0.1723 0.1738 0.1738 0.1738 0.1738 0.1746 0.1762 0.1785 0.1785 0.1809 0.1856 0.1887 0.1872 0.1864 0.1848 0.1848 0.1840 0.1832 0.1848 0.1856 0.1856 0.1856 0.1848 0.1856 0.1856 0.1848 0.1864 0.1879 0.1887 0.1895 0.1887 0.1887 0.1903 0.1911 0.1911 0.1919 0.1942 0.1981 0.2013 0.2028 0.2020 0.2013 0.2005 0.2005 0.2013 0.2036 0.2052 0.2052 0.2052 0.2060 0.2099 0.2138 0.2114 0.2099 0.2075 0.2106 0.2161 0.2200 0.2208 0.2208 0.2224 0.2224 0.2224 0.2240 0.2287 0.2349 0.2428 0.2482 0.2537 0.2592 0.2623 0.2623 0.2608 0.2584 0.2553 0.2522 0.2506 0.2475 0.2459 0.2459 0.2482 0.2498 0.2506 0.2506 0.2490 0.2475 0.2475 0.2467 0.2451 0.2435 0.2443 0.2482 0.2514 0.2537 0.2545 0.2553 0.2576 0.2616 0.2647 0.2670 0.2694 0.2717 0.2749 0.2780 0.2788 0.2780 0.2772 0.2756 0.2741 0.2733 0.2709 0.2694 0.2686 0.2686 0.2686 0.2702 0.2702 0.2709 0.2709 0.2702 0.2694 0.2709 0.2733 0.2756 0.2796 0.2835 0.2890 0.2937 0.2976 0.3007 0.3015 0.3007 0.2999 0.2976 0.2952 0.2929 0.2897 0.2874 0.2882 0.2890 0.2897 0.2913 0.2937 0.2960 0.2991 0.3031 0.3085 0.3132 0.3164 0.3164 0.3179 0.3179 0.3187 0.3195 0.3187 0.3187 0.3187 0.3187 0.3195 0.3171 0.3148 0.3125 0.3125 0.3156 0.3211 0.3258 0.3305 0.3359 0.3399 0.3438 0.3469 0.3500 0.3540 0.3563 0.3587 0.3594 0.3602 0.3626 0.3657 0.3688 0.3727 0.3759 0.3806
0.1660 0.1684 0.1707 0.1731 0.1762 0.1778 0.1770 0.1770 0.1793 0.1817 0.1840 0.1872 0.1903 0.1942 0.1989 0.2020 0.2044 0.2060 0.2091 0.2122 0.2130 0.2114 0.2091 0.2075 0.2075 0.2075 0.2075 0.2091 0.2114 0.2122 0.2146 0.2169 0.2177 0.2177 0.2177 0.2153 0.2130 0.2099 0.2044 0.1989 0.1950 0.1903 0.1856 0.1825 0.1793 0.1778 0.1770 0.1778 0.1762 0.1762 0.1754 0.1738 0.1731 0.1715 0.1699 0.1699 0.1699 0.1699 0.1699 0.1723 0.1754 0.1770 0.1770 0.1770 0.1785 0.1817 0.1848 0.1887 0.1911 0.1942 0.1950 0.1958 0.1950 0.1950 0.1934 0.1911 0.1903 0.1895 0.1887 0.1872 0.1872 0.1864 0.1856 0.1848 0.1848 0.1872 0.1879 0.1879 0.1872 0.1872 0.1872 0.1879 0.1895 0.1926 0.1981 0.2028 0.2067 0.2091 0.2114 0.2099 0.2083 0.2083 0.2091 0.2106 0.2122 0.2122 0.2114 0.2130 0.2146 0.2169 0.2169 0.2138 0.2122 0.2130 0.2177 0.2232 0.2263 0.2279 0.2279 0.2271 0.2271 0.2279 0.2318 0.2388 0.2443 0.2490 0.2529 0.2569 0.2608 0.2631 0.2623 0.2608 0.2569 0.2553 0.2529 0.2514 0.2506 0.2522 0.2545 0.2576 0.2576 0.2569 0.2545 0.2529 0.2514 0.2514 0.2498 0.2490 0.2498 0.2537 0.2576 0.2592 0.2584 0.2561 0.2569 0.2608 0.2662 0.2725 0.2749 0.2772 0.2788 0.2780 0.2780 0.2764 0.2749 0.2733 0.2717 0.2709 0.2694 0.2662 0.2647 0.2647 0.2655 0.2670 0.2678 0.2678 0.2662 0.2662 0.2670 0.2678 0.2702 0.2741 0.2788 0.2850 0.2897 0.2937 0.2952 0.2960 0.2944 0.2952 0.2937 0.2921 0.2890 0.2866 0.2850 0.2850 0.2858 0.2866 0.2874 0.2882 0.2882 0.2897 0.2952 0.3031 0.3070 0.3093 0.3125 0.3148 0.3164 0.3156 0.3148 0.3140 0.3132 0.3132 0.3132 0.3140 0.3148 0.3140 0.3117 0.3093 0.3078 0.3117 0.3171 0.3211 0.3250 0.3305 0.3352 0.3391 0.3430 0.3469 0.3500 0.3532 0.3540 0.3540 0.3540 0.3563 0.3587 0.3626 0.3673 0.3712 0.3751
0.1707 0.1738 0.1746 0.1762 0.1793 0.1817 0.1809 0.1801 0.1801 0.1809 0.1832 0.1864 0.1903 0.1934 0.1973 0.2005 0.2044 0.2083 0.2122 0.2153 0.2169 0.2161 0.2146 0.2130 0.2130 0.2138 0.2138 0.2153 0.2169 0.2185 0.2200 0.2216 0.2224 0.2224 0.2216 0.2193 0.2169 0.2122 0.2075 0.2013 0.1973 0.1942 0.1903 0.1864 0.1832 0.1809 0.1809 0.1801 0.1793 0.1801 0.1817 0.1801 0.1762 0.1731 0.1699 0.1684 0.1684 0.1684 0.1691 0.1731 0.1778 0.1809 0.1832 0.1840 0.1856 0.1887 0.1934 0.1966 0.1981 0.1997 0.2028 0.2036 0.2036 0.2020 0.1997 0.1989 0.1966 0.1950 0.1934 0.1919 0.1911 0.1911 0.1895 0.1879 0.1879 0.1887 0.1887 0.1887 0.1879 0.1872 0.1872 0.1879 0.1903 0.1966 0.2028 0.2067 0.2099 0.2130 0.2153 0.2153 0.2146 0.2146 0.2169 0.2185 0.2193 0.2185 0.2185 0.2177 0.2193 0.2208 0.2216 0.2185 0.2153 0.2146 0.2177 0.2232 0.2287 0.2318 0.2326 0.2310 0.2310 0.2310 0.2349 0.2412 0.2451 0.2482 0.2506 0.2553 0.2608 0.2639 0.2647 0.2639 0.2600 0.2592 0.2576 0.2561 0.2553 0.2569 0.2623 0.2647 0.2655 0.2639 0.2600 0.2569 0.2553 0.2545 0.2529 0.2529 0.2553 0.2576 0.2608 0.2631 0.2631 0.2623 0.2616 0.2639 0.2686 0.2741 0.2796 0.2819 0.2811 0.2796 0.2780 0.2756 0.2733 0.2717 0.2702 0.2686 0.2662 0.2631 0.2623 0.2616 0.2623 0.2631 0.2631 0.2631 0.2623 0.2639 0.2655 0.2678 0.2709 0.2749 0.2803 0.2858 0.2897 0.2897 0.2905 0.2897 0.2890 0.2890 0.2882 0.2866 0.2843 0.2819 0.2819 0.2835 0.2850 0.2858 0.2858 0.2858 0.2866 0.2882 0.2929 0.2984 0.3046 0.3070 0.3101 0.3125 0.3132 0.3132 0.3117 0.3093 0.3078 0.3070 0.3078 0.3085 0.3109 0.3101 0.3093 0.3070 0.3062 0.3062 0.3109 0.3156 0.3195 0.3250 0.3289 0.3336 0.3367 0.3406 0.3438 0.3453 0.3461 0.3469 0.3477 0.3500 0.3532 0.3579 0.3641 0.3681 0.3712
0.1746 0.1778 0.1785 0.1801 0.1832 0.1856 0.1879 0.1872 0.1856 0.1848 0.1856 0.1879 0.1919 0.1942 0.1958 0.2013 0.2060 0.2106 0.2138 0.2169 0.2193 0.2200 0.2185 0.2177 0.2185 0.2193 0.2193 0.2200 0.2208 0.2208 0.2240 0.2263 0.2263 0.2247 0.2240 0.2216 0.2185 0.2138 0.2091 0.2044 0.2005 0.1973 0.1958 0.1934 0.1895 0.1864 0.1840 0.1825 0.1825 0.1840 0.1864 0.1848 0.1809 0.1762 0.1723 0.1699 0.1684 0.1684 0.1699 0.1746 0.1801 0.1856 0.1903 0.1934 0.1942 0.1981 0.2044 0.2075 0.2075 0.2091 0.2099 0.2114 0.2114 0.2099 0.2060 0.2036 0.2013 0.1989 0.1973 0.1958 0.1966 0.1966 0.1958 0.1958 0.1958 0.1950 0.1934 0.1926 0.1926 0.1942 0.1934 0.1926 0.1942 0.1989 0.2028 0.2067 0.2106 0.2130 0.2169 0.2177 0.2177 0.2200 0.2224 0.2255 0.2271 0.2271 0.2263 0.2255 0.2255 0.2255 0.2240 0.2216 0.2193 0.2177 0.2185 0.2232 0.2279 0.2334 0.2357 0.2349 0.2349 0.2349 0.2381 0.2404 0.2435 0.2475 0.2506 0.2553 0.2608 0.2655 0.2655 0.2662 0.2655 0.2647 0.2623 0.2600 0.2592 0.2623 0.2655 0.2678 0.2694 0.2686 0.2678 0.2655 0.2647 0.2608 0.2584 0.2584 0.2616 0.2639 0.2662 0.2678 0.2678 0.2678 0.2678 0.2686 0.2709 0.2764 0.2811 0.2835 0.2827 0.2803 0.2780 0.2749 0.2717 0.2694 0.2678 0.2662 0.2639 0.2616 0.2592 0.2600 0.2600 0.2600 0.2584 0.2592 0.2608 0.2623 0.2662 0.2702 0.2741 0.2780 0.2811 0.2850 0.2858 0.2866 0.2858 0.2843 0.2827 0.2811 0.2819 0.2811 0.2796 0.2788 0.2788 0.2811 0.2835 0.2843 0.2843 0.2850 0.2866 0.2874 0.2897 0.2952 0.3007 0.3031 0.3054 0.3085 0.3101 0.3093 0.3070 0.3046 0.3023 0.3023 0.3038 0.3046 0.3062 0.3070 0.3054 0.3046 0.3038 0.3046 0.3062 0.3101 0.3148 0.3179 0.3226 0.3265 0.3320 0.3344 0.3375 0.3391 0.3406 0.3391 0.3406 0.3438 0.3485 0.3540 0.3594 0.3634 0.3649
0.1770 0.1793 0.1817 0.1840 0.1864 0.1895 0.1926 0.1934 0.1919 0.1903 0.1903 0.1934 0.1950 0.1958 0.1966 0.2020 0.2067 0.2114 0.2161 0.2193 0.2216 0.2224 0.2240 0.2240 0.2247 0.2255 0.2247 0.2240 0.2240 0.2247 0.2263 0.2287 0.2271 0.2271 0.2271 0.2240 0.2200 0.2161 0.2122 0.2091 0.2060 0.2044 0.2036 0.2005 0.1966 0.1926 0.1895 0.1887 0.1895 0.1911 0.1903 0.1879 0.1832 0.1785 0.1762 0.1738 0.1731 0.1738 0.1754 0.1809 0.1864 0.1919 0.1966 0.1989 0.2013 0.2060 0.2099 0.2130 0.2146 0.2146 0.2161 0.2169 0.2185 0.2169 0.2146 0.2099 0.2067 0.2036 0.2013 0.1997 0.1997 0.1989 0.2013 0.2028 0.2020 0.2005 0.1997 0.1997 0.2005 0.2020 0.2020 0.1997 0.1981 0.1989 0.2020 0.2052 0.2099 0.2153 0.2185 0.2208 0.2232 0.2247 0.2271 0.2294 0.2318 0.2326 0.2334 0.2341 0.2341 0.2318 0.2294 0.2263 0.2240 0.2216 0.2216 0.2232 0.2271 0.2334 0.2373 0.2396 0.2396 0.2404 0.2404 0.2404 0.2428 0.2459 0.2506 0.2537 0.2592 0.2631 0.2662 0.2678 0.2686 0.2678 0.2655 0.2639 0.2631 0.2647 0.2686 0.2709 0.2733 0.2756 0.2764 0.2741 0.2717 0.2670 0.2647 0.2662 0.2694 0.2702 0.2717 0.2733 0.2725 0.2709 0.2702 0.2733 0.2780 0.2827 0.2850 0.2874 0.2850 0.2819 0.2780 0.2741 0.2702 0.2670 0.2655 0.2639 0.2616 0.2592 0.2569 0.2561 0.2561 0.2561 0.2561 0.2569 0.2584 0.2616 0.2670 0.2733 0.2772 0.2803 0.2835 0.2827 0.2819 0.2819 0.2811 0.2796 0.2780 0.2764 0.2756 0.2756 0.2756 0.2749 0.2764 0.2796 0.2835 0.2835 0.2827 0.2835 0.2843 0.2866 0.2890 0.2929 0.2960 0.2984 0.3007 0.3038 0.3062 0.3046 0.3031 0.2999 0.2976 0.2976 0.2991 0.3007 0.3023 0.3023 0.3023 0.3023 0.3015 0.3007 0.3023 0.3062 0.3101 0.3117 0.3148 0.3171 0.3218 0.3258 0.3305 0.3344 0.3352 0.3344 0.3352 0.3391 0.3453 0.3524 0.3579 0.3602 0.3618
0.1785 0.1809 0.1832 0.1856 0.1887 0.1911 0.1950 0.1958 0.1958 0.1958 0.1973 0.1989 0.2005 0.1989 0.1997 0.2020 0.2099 0.2161 0.2208 0.2240 0.2263 0.2271 0.2287 0.2302 0.2302 0.2302 0.2294 0.2287 0.2294 0.2310 0.2318 0.2318 0.2310 0.2310 0.2294 0.2271 0.2232 0.2185 0.2153 0.2130 0.2114 0.2106 0.2091 0.2052 0.2005 0.1973 0.1958 0.1950 0.1973 0.1981 0.1973 0.1926 0.1879 0.1840 0.1825 0.1825 0.1832 0.1825 0.1825 0.1872 0.1934 0.1981 0.2028 0.2044 0.2060 0.2067 0.2106 0.2146 0.2161 0.2177 0.2185 0.2200 0.2208 0.2208 0.2177 0.2169 0.2138 0.2106 0.2075 0.2052 0.2036 0.2028 0.2052 0.2067 0.2075 0.2075 0.2075 0.2083 0.2099 0.2099 0.2083 0.2036 0.2013 0.2013 0.2036 0.2075 0.2122 0.2177 0.2232 0.2271 0.2279 0.2279 0.2294 0.2318 0.2341 0.2357 0.2381 0.2388 0.2388 0.2388 0.2381 0.2365 0.2326 0.2279 0.2255 0.2247 0.2287 0.2341 0.2404 0.2428 0.2428 0.2435 0.2428 0.2443 0.2451 0.2482 0.2506 0.2545 0.2576 0.2623 0.2662 0.2694 0.2717 0.2709 0.2686 0.2670 0.2678 0.2686 0.2725 0.2764 0.2796 0.2819 0.2819 0.2796 0.2756 0.2733 0.2725 0.2741 0.2756 0.2780 0.2811 0.2803 0.2780 0.2756 0.2764 0.2788 0.2827 0.2850 0.2866 0.2866 0.2850 0.2811 0.2772 0.2741 0.2709 0.2670 0.2639 0.2623 0.2600 0.2576 0.2553 0.2537 0.2537 0.2537 0.2529 0.2545 0.2576 0.2623 0.2709 0.2764 0.2803 0.2827 0.2827 0.2811 0.2788 0.2772 0.2756 0.2741 0.2733 0.2725 0.2725 0.2725 0.2717 0.2702 0.2741 0.2788 0.2811 0.2811 0.2811 0.2803 0.2811 0.2827 0.2850 0.2890 0.2921 0.2937 0.2968 0.3007 0.3023 0.3023 0.2999 0.2976 0.2952 0.2929 0.2952 0.2968 0.2984 0.2991 0.2999 0.2999 0.2984 0.2976 0.2984 0.2999 0.3023 0.3046 0.3078 0.3109 0.3140 0.3187 0.3226 0.3258 0.3273 0.3289 0.3320 0.3367 0.3438 0.3500 0.3540 0.3571 0.3587
0.1809 0.1817 0.1840 0.1872 0.1903 0.1942 0.1973 0.1997 0.2013 0.2036 0.2052 0.2060 0.2052 0.2028 0.2028 0.2083 0.2146 0.2193 0.2247 0.2279 0.2287 0.2294 0.2302 0.2310 0.2310 0.2302 0.2302 0.2318 0.2326 0.2326 0.2326 0.2334 0.2341 0.2334 0.2326 0.2310 0.2263 0.2224 0.2208 0.2185 0.2177 0.2153 0.2130 0.2099 0.2052 0.2020 0.2005 0.2005 0.2028 0.2044 0.2020 0.1997 0.1958 0.1934 0.1926 0.1919 0.1903 0.1887 0.1895 0.1934 0.1966 0.2005 0.2052 0.2083 0.2083 0.2091 0.2106 0.2138 0.2161 0.2177 0.2200 0.2232 0.2255 0.2263 0.2247 0.2232 0.2216 0.2185 0.2138 0.2122 0.2106 0.2099 0.2099 0.2130 0.2169 0.2177 0.2185 0.2193 0.2185 0.2161 0.2130 0.2075 0.2060 0.2052 0.2075 0.2099 0.2146 0.2224 0.2279 0.2310 0.2318 0.2326 0.2334 0.2357 0.2381 0.2412 0.2435 0.2435 0.2443 0.2443 0.2428 0.2404 0.2373 0.2334 0.2287 0.2287 0.2310 0.2357 0.2412 0.2459 0.2459 0.2482 0.2490 0.2490 0.2498 0.2514 0.2529 0.2561 0.2592 0.2639 0.2694 0.2733 0.2756 0.2756 0.2717 0.2702 0.2702 0.2725 0.2764 0.2796 0.2819 0.2843 0.2843 0.2835 0.2811 0.2803 0.2803 0.2811 0.2827 0.2850 0.2866 0.2874 0.2850 0.2835 0.2827 0.2827 0.2827 0.2827 0.2835 0.2827 0.2803 0.2764 0.2741 0.2717 0.2694 0.2662 0.2647 0.2623 0.2592 0.2561 0.2537 0.2522 0.2514 0.2514 0.2514 0.2537 0.2576 0.2647 0.2717 0.2796 0.2835 0.2835 0.2827 0.2788 0.2756 0.2733 0.2709 0.2709 0.2702 0.2686 0.2686 0.2694 0.2686 0.2694 0.2717 0.2749 0.2764 0.2764 0.2764 0.2764 0.2764 0.2788 0.2819 0.2858 0.2890 0.2921 0.2960 0.2999 0.3007 0.2999 0.2976 0.2960 0.2913 0.2905 0.2913 0.2929 0.2937 0.2960 0.2976 0.2976 0.2960 0.2944 0.2944 0.2960 0.2976 0.2991 0.3023 0.3062 0.3101 0.3132 0.3156 0.3179 0.3195 0.3226 0.3273 0.3336 0.3391 0.3446 0.3485 0.3532 0.3547
0.1825 0.1832 0.1856 0.1887 0.1926 0.1973 0.2005 0.2044 0.2060 0.2075 0.2083 0.2083 0.2091 0.2083 0.2099 0.2114 0.2146 0.2177 0.2208 0.2240 0.2271 0.2287 0.2294 0.2287 0.2271 0.2263 0.2271 0.2287 0.2294 0.2294 0.2294 0.2302 0.2318 0.2334 0.2334 0.2318 0.2294 0.2279 0.2271 0.2255 0.2224 0.2193 0.2169 0.2130 0.2091 0.2060 0.2036 0.2044 0.2060 0.2083 0.2083 0.2052 0.2036 0.2020 0.1997 0.1981 0.1973 0.1973 0.1981 0.2013 0.2028 0.2060 0.2099 0.2122 0.2114 0.2114 0.2122 0.2146 0.2161 0.2169 0.2200 0.2247 0.2302 0.2310 0.2302 0.2279 0.2263 0.2247 0.2224 0.2193 0.2177 0.2169 0.2208 0.2232 0.2255 0.2279 0.2279 0.2271 0.2240 0.2200 0.2161 0.2114 0.2083 0.2083 0.2099 0.2130 0.2193 0.2263 0.2310 0.2349 0.2381 0.2396 0.2420 0.2435 0.2451 0.2498 0.2498 0.2475 0.2475 0.2482 0.2482 0.2459 0.2428 0.2388 0.2349 0.2341 0.2341 0.2365 0.2412 0.2475 0.2475 0.2522 0.2537 0.2537 0.2537 0.2545 0.2561 0.2584 0.2616 0.2670 0.2725 0.2764 0.2796 0.2796 0.2764 0.2733 0.2749 0.2764 0.2788 0.2811 0.2835 0.2843 0.2850 0.2850 0.2850 0.2850 0.2866 0.2882 0.2897 0.2921 0.2937 0.2929 0.2913 0.2890 0.2858 0.2835 0.2811 0.2796 0.2788 0.2772 0.2749 0.2725 0.2702 0.2686 0.2662 0.2647 0.2616 0.2592 0.2569 0.2545 0.2514 0.2498 0.2498 0.2506 0.2529 0.2561 0.2600 0.2639 0.2709 0.2780 0.2827 0.2811 0.2788 0.2756 0.2709 0.2678 0.2678 0.2678 0.2662 0.2639 0.2631 0.2647 0.2662 0.2678 0.2694 0.2709 0.2725 0.2725 0.2725 0.2725 0.2733 0.2764 0.2803 0.2835 0.2874 0.2921 0.2960 0.2991 0.2984 0.2976 0.2960 0.2937 0.2897 0.2874 0.2882 0.2890 0.2913 0.2944 0.2952 0.2952 0.2944 0.2929 0.2929 0.2929 0.2944 0.2960 0.2991 0.3023 0.3054 0.3085 0.3101 0.3109 0.3140 0.3187 0.3234 0.3273 0.3320 0.3375 0.3430 0.3485 0.3508
0.1864 0.1864 0.1895 0.1942 0.1973 0.1997 0.2036 0.2052 0.2067 0.2075 0.2060 0.2060 0.2060 0.2075 0.2091 0.2106 0.2122 0.2138 0.2177 0.2208 0.2240 0.2271 0.2279 0.2263 0.2240 0.2224 0.2216 0.2232 0.2247 0.2247 0.2247 0.2255 0.2263 0.2287 0.2287 0.2279 0.2271 0.2263 0.2263 0.2232 0.2216 0.2193 0.2177 0.2146 0.2114 0.2091 0.2067 0.2067 0.2091 0.2114 0.2130 0.2122 0.2114 0.2099 0.2083 0.2075 0.2075 0.2083 0.2083 0.2091 0.2099 0.2114 0.2138 0.2146 0.2153 0.2153 0.2161 0.2185 0.2193 0.2200 0.2208 0.2263 0.2326 0.2341 0.2341 0.2334 0.2318 0.2318 0.2287 0.2247 0.2216 0.2232 0.2255 0.2287 0.2310 0.2326 0.2334 0.2302 0.2263 0.2216 0.2185 0.2153 0.2106 0.2099 0.2114 0.2169 0.2232 0.2287 0.2334 0.2381 0.2412 0.2451 0.2490 0.2506 0.2537 0.2553 0.2545 0.2522 0.2514 0.2529 0.2529 0.2514 0.2490 0.2443 0.2396 0.2373 0.2365 0.2381 0.2420 0.2475 0.2475 0.2537 0.2561 0.2576 0.2576 0.2576 0.2592 0.2608 0.2655 0.2694 0.2741 0.2788 0.2827 0.2835 0.2803 0.2788 0.2780 0.2780 0.2796 0.2811 0.2835 0.2843 0.2843 0.2835 0.2835 0.2850 0.2882 0.2913 0.2944 0.2968 0.2976 0.2960 0.2952 0.2913 0.2874 0.2843 0.2796 0.2764 0.2741 0.2725 0.2702 0.2686 0.2670 0.2647 0.2631 0.2608 0.2576 0.2545 0.2537 0.2514 0.2490 0.2467 0.2475 0.2498 0.2522 0.2561 0.2600 0.2647 0.2694 0.2733 0.2772 0.2764 0.2733 0.2686 0.2655 0.2623 0.2616 0.2623 0.2608 0.2592 0.2576 0.2592 0.2623 0.2639 0.2655 0.2678 0.2694 0.2694 0.2694 0.2709 0.2725 0.2749 0.2788 0.2835 0.2882 0.2921 0.2960 0.2976 0.2968 0.2960 0.2944 0.2913 0.2850 0.2827 0.2827 0.2843 0.2874 0.2905 0.2929 0.2929 0.2921 0.2913 0.2905 0.2905 0.2905 0.2921 0.2944 0.2976 0.3007 0.3023 0.3038 0.3054 0.3093 0.3156 0.3211 0.3242 0.3289 0.3336 0.3383 0.3446 0.3469
0.1903 0.1926 0.1950 0.1989 0.2005 0.2020 0.2028 0.2036 0.2036 0.2028 0.2028 0.2020 0.2020 0.2044 0.2067 0.2075 0.2106 0.2138 0.2161 0.2185 0.2200 0.2232 0.2247 0.2232 0.2200 0.2177 0.2169 0.2177 0.2193 0.2200 0.2193 0.2193 0.2208 0.2232 0.2232 0.2224 0.2224 0.2216 0.2177 0.2161 0.2161 0.2193 0.2185 0.2146 0.2138 0.2114 0.2099 0.2099 0.2122 0.2161 0.2185 0.2185 0.2177 0.2169 0.2161 0.2153 0.2161 0.2161 0.2146 0.2138 0.2138 0.2161 0.2177 0.2185 0.2185 0.2193 0.2208 0.2224 0.2240 0.2247 0.2263 0.2302 0.2365 0.2388 0.2396 0.2388 0.2381 0.2357 0.2334 0.2287 0.2255 0.2247 0.2271 0.2302 0.2334 0.2357 0.2357 0.2334 0.2279 0.2232 0.2216 0.2185 0.2138 0.2114 0.2138 0.2185 0.2232 0.2279 0.2326 0.2365 0.2404 0.2435 0.2482 0.2522 0.2553 0.2576 0.2576 0.2569 0.2553 0.2561 0.2561 0.2545 0.2506 0.2475 0.2428 0.2396 0.2388 0.2396 0.2420 0.2475 0.2475 0.2522 0.2561 0.2592 0.2608 0.2623 0.2623 0.2647 0.2670 0.2702 0.2733 0.2780 0.2819 0.2827 0.2819 0.2811 0.2803 0.2796 0.2796 0.2811 0.2819 0.2819 0.2819 0.2819 0.2819 0.2835 0.2866 0.2897 0.2937 0.2960 0.2960 0.2952 0.2937 0.2905 0.2874 0.2835 0.2772 0.2733 0.2709 0.2686 0.2655 0.2639 0.2616 0.2600 0.2592 0.2569 0.2537 0.2514 0.2498 0.2475 0.2451 0.2443 0.2451 0.2482 0.2506 0.2537 0.2584 0.2623 0.2655 0.2678 0.2709 0.2709 0.2686 0.2647 0.2616 0.2584 0.2576 0.2561 0.2553 0.2537 0.2529 0.2545 0.2584 0.2608 0.2623 0.2639 0.2662 0.2662 0.2694 0.2717 0.2733 0.2764 0.2803 0.2850 0.2905 0.2937 0.2960 0.2968 0.2968 0.2944 0.2929 0.2882 0.2819 0.2772 0.2756 0.2780 0.2819 0.2874 0.2897 0.2897 0.2905 0.2897 0.2890 0.2874 0.2874 0.2890 0.2913 0.2929 0.2944 0.2960 0.2991 0.3007 0.3070 0.3132 0.3171 0.3211 0.3265 0.3305 0.3352 0.3399 0.3414
0.1950 0.1966 0.1989 0.1997 0.2005 0.2005 0.1997 0.1997 0.1981 0.1981 0.1973 0.1973 0.1981 0.1997 0.2013 0.2044 0.2083 0.2138 0.2161 0.2169 0.2185 0.2193 0.2185 0.2177 0.2153 0.2130 0.2122 0.2122 0.2153 0.2146 0.2146 0.2138 0.2153 0.2177 0.2169 0.2169 0.2169 0.2161 0.2153 0.2138 0.2161 0.2193 0.2200 0.2169 0.2169 0.2177 0.2161 0.2169 0.2193 0.2240 0.2287 0.2271 0.2255 0.2247 0.2232 0.2224 0.2224 0.2216 0.2216 0.2200 0.2200 0.2216 0.2232 0.2232 0.2224 0.2232 0.2247 0.2263 0.2287 0.2294 0.2310 0.2341 0.2388 0.2412 0.2428 0.2428 0.2404 0.2373 0.2357 0.2326 0.2279 0.2271 0.2287 0.2318 0.2341 0.2365 0.2373 0.2357 0.2326 0.2279 0.2232 0.2200 0.2161 0.2146 0.2146 0.2169 0.2200 0.2247 0.2279 0.2318 0.2365 0.2420 0.2467 0.2506 0.2537 0.2561 0.2569 0.2569 0.2576 0.2584 0.2592 0.2576 0.2529 0.2490 0.2467 0.2435 0.2412 0.2404 0.2428 0.2467 0.2467 0.2506 0.2545 0.2584 0.2616 0.2639 0.2655 0.2670 0.2686 0.2702 0.2725 0.2756 0.2796 0.2811 0.2811 0.2811 0.2803 0.2796 0.2796 0.2796 0.2796 0.2780 0.2772 0.2780 0.2788 0.2803 0.2843 0.2890 0.2905 0.2905 0.2905 0.2897 0.2882 0.2866 0.2850 0.2796 0.2741 0.2702 0.2686 0.2670 0.2631 0.2592 0.2569 0.2553 0.2529 0.2514 0.2490 0.2482 0.2467 0.2443 0.2428 0.2412 0.2428 0.2451 0.2490 0.2522 0.2545 0.2584 0.2616 0.2639 0.2655 0.2662 0.2639 0.2616 0.2592 0.2576 0.2553 0.2529 0.2506 0.2490 0.2490 0.2529 0.2569 0.2584 0.2584 0.2592 0.2616 0.2639 0.2678 0.2725 0.2749 0.2772 0.2803 0.2874 0.2921 0.2952 0.2960 0.2952 0.2929 0.2921 0.2882 0.2850 0.2803 0.2749 0.2733 0.2733 0.2772 0.2827 0.2858 0.2874 0.2874 0.2866 0.2850 0.2827 0.2827 0.2835 0.2850 0.2850 0.2858 0.2890 0.2937 0.2984 0.3046 0.3109 0.3140 0.3171 0.3218 0.3265 0.3305 0.3336 0.3359
0.1958 0.1981 0.1989 0.1981 0.1981 0.1973 0.1973 0.1942 0.1919 0.1919 0.1919 0.1926 0.1942 0.1950 0.1981 0.2013 0.2060 0.2106 0.2138 0.2161 0.2161 0.2169 0.2153 0.2138 0.2106 0.2083 0.2067 0.2083 0.2083 0.2106 0.2099 0.2099 0.2114 0.2122 0.2122 0.2122 0.2130 0.2138 0.2146 0.2153 0.2177 0.2216 0.2232 0.2240 0.2247 0.2224 0.2208 0.2216 0.2247 0.2294 0.2318 0.2326 0.2326 0.2334 0.2326 0.2318 0.2302 0.2294 0.2279 0.2263 0.2247 0.2240 0.2263 0.2271 0.2263 0.2247 0.2271 0.2310 0.2334 0.2341 0.2349 0.2373 0.2404 0.2443 0.2475 0.2482 0.2443 0.2396 0.2373 0.2349 0.2326 0.2318 0.2326 0.2349 0.2373 0.2396 0.2404 0.2388 0.2341 0.2287 0.2240 0.2200 0.2177 0.2169 0.2185 0.2193 0.2208 0.2232 0.2255 0.2294 0.2349 0.2396 0.2451 0.2490 0.2514 0.2522 0.2529 0.2545 0.2569 0.2600 0.2608 0.2600 0.2561 0.2514 0.2490 0.2475 0.2451 0.2435 0.2443 0.2467 0.2467 0.2506 0.2545 0.2584 0.2608 0.2647 0.2678 0.2678 0.2694 0.2709 0.2717 0.2733 0.2756 0.2788 0.2796 0.2796 0.2796 0.2780 0.2772 0.2772 0.2756 0.2741 0.2733 0.2733 0.2749 0.2772 0.2819 0.2866 0.2874 0.2858 0.2843 0.2835 0.2827 0.2827 0.2811 0.2756 0.2702 0.2670 0.2662 0.2647 0.2616 0.2569 0.2537 0.2506 0.2490 0.2467 0.2443 0.2443 0.2435 0.2412 0.2396 0.2388 0.2388 0.2420 0.2451 0.2482 0.2506 0.2537 0.2584 0.2608 0.2616 0.2608 0.2584 0.2576 0.2569 0.2553 0.2529 0.2506 0.2475 0.2467 0.2482 0.2514 0.2545 0.2545 0.2545 0.2553 0.2576 0.2616 0.2662 0.2709 0.2741 0.2764 0.2819 0.2874 0.2913 0.2937 0.2937 0.2913 0.2897 0.2874 0.2843 0.2811 0.2780 0.2725 0.2709 0.2717 0.2733 0.2772 0.2811 0.2827 0.2835 0.2835 0.2819 0.2796 0.2772 0.2749 0.2749 0.2764 0.2796 0.2835 0.2897 0.2968 0.3038 0.3078 0.3101 0.3125 0.3164 0.3211 0.3250 0.3281 0.3297
0.1926 0.1950 0.1950 0.1934 0.1934 0.1926 0.1903 0.1887 0.1864 0.1856 0.1864 0.1895 0.1911 0.1942 0.1973 0.1997 0.2036 0.2075 0.2099 0.2114 0.2138 0.2153 0.2146 0.2114 0.2083 0.2052 0.2060 0.2052 0.2060 0.2060 0.2060 0.2067 0.2075 0.2067 0.2060 0.2060 0.2083 0.2083 0.2099 0.2122 0.2138 0.2177 0.2224 0.2263 0.2255 0.2232 0.2208 0.2200 0.2232 0.2263 0.2294 0.2318 0.2349 0.2373 0.2381 0.2388 0.2388 0.2381 0.2349 0.2310 0.2287 0.2287 0.2294 0.2302 0.2302 0.2310 0.2341 0.2373 0.2404 0.2412 0.2420 0.2428 0.2451 0.2498 0.2537 0.2545 0.2506 0.2451 0.2420 0.2412 0.2404 0.2381 0.2396 0.2420 0.2443 0.2451 0.2443 0.2420 0.2365 0.2318 0.2271 0.2232 0.2216 0.2224 0.2240 0.2255 0.2271 0.2287 0.2294 0.2334 0.2373 0.2396 0.2435 0.2459 0.2482 0.2490 0.2498 0.2522 0.2576 0.2608 0.2616 0.2600 0.2569 0.2537 0.2529 0.2514 0.2490 0.2467 0.2459 0.2467 0.2467 0.2514 0.2545 0.2576 0.2616 0.2662 0.2702 0.2717 0.2725 0.2725 0.2725 0.2725 0.2756 0.2780 0.2788 0.2788 0.2780 0.2764 0.2749 0.2741 0.2725 0.2709 0.2709 0.2709 0.2717 0.2741 0.2764 0.2803 0.2819 0.2819 0.2811 0.2811 0.2796 0.2803 0.2788 0.2749 0.2694 0.2655 0.2647 0.2623 0.2600 0.2561 0.2522 0.2498 0.2467 0.2435 0.2420 0.2412 0.2396 0.2381 0.2373 0.2365 0.2365 0.2381 0.2420 0.2459 0.2482 0.2514 0.2553 0.2584 0.2576 0.2561 0.2537 0.2514 0.2514 0.2506 0.2490 0.2475 0.2459 0.2459 0.2482 0.2506 0.2514 0.2514 0.2514 0.2529 0.2569 0.2616 0.2655 0.2694 0.2725 0.2756 0.2803 0.2843 0.2874 0.2890 0.2897 0.2897 0.2874 0.2843 0.2803 0.2764 0.2733 0.2694 0.2686 0.2686 0.2702 0.2725 0.2772 0.2796 0.2811 0.2811 0.2803 0.2788 0.2741 0.2709 0.2694 0.2717 0.2749 0.2811 0.2874 0.2944 0.2991 0.3038 0.3070 0.3101 0.3132 0.3164 0.3211 0.3234 0.3250
0.1879 0.1895 0.1895 0.1895 0.1879 0.1856 0.1840 0.1825 0.1825 0.1825 0.1848 0.1879 0.1919 0.1942 0.1966 0.1989 0.2013 0.2036 0.2060 0.2075 0.2099 0.2106 0.2099 0.2083 0.2052 0.2036 0.2028 0.2028 0.2028 0.2028 0.2020 0.2020 0.2028 0.2020 0.2013 0.2013 0.2028 0.2036 0.2052 0.2075 0.2114 0.2161 0.2208 0.2232 0.2224 0.2208 0.2185 0.2177 0.2200 0.2240 0.2279 0.2318 0.2341 0.2365 0.2381 0.2404 0.2443 0.2451 0.2404 0.2365 0.2357 0.2357 0.2365 0.2388 0.2404 0.2420 0.2428 0.2451 0.2475 0.2482 0.2498 0.2498 0.2529 0.2561 0.2584 0.2569 0.2522 0.2475 0.2459 0.2459 0.2443 0.2451 0.2467 0.2498 0.2506 0.2498 0.2475 0.2435 0.2388 0.2341 0.2302 0.2287 0.2279 0.2294 0.2318 0.2334 0.2349 0.2357 0.2357 0.2365 0.2381 0.2388 0.2404 0.2428 0.2451 0.2459 0.2475 0.2514 0.2553 0.2600 0.2623 0.2616 0.2592 0.2584 0.2576 0.2569 0.2537 0.2514 0.2498 0.2506 0.2506 0.2522 0.2553 0.2584 0.2631 0.2678 0.2717 0.2749 0.2764 0.2764 0.2749 0.2733 0.2749 0.2780 0.2788 0.2788 0.2764 0.2749 0.2725 0.2709 0.2694 0.2678 0.2670 0.2678 0.2686 0.2702 0.2725 0.2733 0.2749 0.2764 0.2764 0.2756 0.2756 0.2756 0.2756 0.2733 0.2686 0.2647 0.2616 0.2592 0.2569 0.2553 0.2522 0.2490 0.2459 0.2428 0.2396 0.2381 0.2365 0.2349 0.2341 0.2334 0.2341 0.2357 0.2404 0.2435 0.2459 0.2490 0.2522 0.2545 0.2537 0.2514 0.2490 0.2475 0.2451 0.2443 0.2435 0.2428 0.2420 0.2428 0.2451 0.2475 0.2482 0.2490 0.2498 0.2529 0.2569 0.2608 0.2639 0.2678 0.2709 0.2741 0.2780 0.2811 0.2835 0.2866 0.2890 0.2890 0.2858 0.2835 0.2796 0.2756 0.2702 0.2662 0.2639 0.2647 0.2662 0.2702 0.2733 0.2749 0.2749 0.2749 0.2741 0.2702 0.2678 0.2662 0.2662 0.2694 0.2749 0.2803 0.2882 0.2921 0.2960 0.2999 0.3054 0.3093 0.3117 0.3156 0.3195 0.3211 0.3195
0.1817 0.1840 0.1856 0.1848 0.1825 0.1785 0.1770 0.1770 0.1778 0.1793 0.1825 0.1872 0.1903 0.1919 0.1942 0.1958 0.1958 0.1973 0.2013 0.2036 0.2052 0.2060 0.2052 0.2028 0.2020 0.2013 0.1997 0.1989 0.1981 0.1989 0.1981 0.1973 0.1981 0.1989 0.1989 0.1981 0.1981 0.1997 0.2013 0.2060 0.2091 0.2122 0.2146 0.2161 0.2161 0.2153 0.2153 0.2161 0.2185 0.2224 0.2263 0.2294 0.2326 0.2357 0.2373 0.2396 0.2443 0.2451 0.2459 0.2435 0.2420 0.2428 0.2443 0.2475 0.2490 0.2506 0.2522 0.2529 0.2545 0.2553 0.2561 0.2584 0.2608 0.2631 0.2623 0.2592 0.2545 0.2522 0.2498 0.2506 0.2498 0.2490 0.2522 0.2545 0.2545 0.2522 0.2482 0.2435 0.2404 0.2373 0.2349 0.2349 0.2349 0.2365 0.2373 0.2381 0.2396 0.2404 0.2404 0.2404 0.2396 0.2404 0.2412 0.2420 0.2443 0.2459 0.2482 0.2514 0.2561 0.2592 0.2623 0.2639 0.2647 0.2631 0.2631 0.2616 0.2592 0.2576 0.2569 0.2569 0.2569 0.2569 0.2576 0.2600 0.2631 0.2670 0.2725 0.2772 0.2796 0.2788 0.2764 0.2733 0.2725 0.2741 0.2764 0.2772 0.2764 0.2741 0.2709 0.2686 0.2662 0.2639 0.2631 0.2631 0.2639 0.2655 0.2670 0.2678 0.2686 0.2694 0.2694 0.2686 0.2694 0.2702 0.2709 0.2709 0.2694 0.2655 0.2631 0.2608 0.2576 0.2553 0.2522 0.2490 0.2459 0.2435 0.2404 0.2365 0.2334 0.2318 0.2310 0.2310 0.2310 0.2326 0.2373 0.2428 0.2451 0.2467 0.2490 0.2498 0.2482 0.2467 0.2459 0.2451 0.2428 0.2412 0.2396 0.2388 0.2388 0.2404 0.2420 0.2451 0.2475 0.2482 0.2506 0.2553 0.2576 0.2616 0.2662 0.2686 0.2709 0.2741 0.2780 0.2811 0.2835 0.2866 0.2890 0.2874 0.2850 0.2827 0.2803 0.2756 0.2694 0.2631 0.2592 0.2592 0.2608 0.2639 0.2655 0.2678 0.2686 0.2686 0.2662 0.2647 0.2639 0.2647 0.2662 0.2725 0.2803 0.2858 0.2905 0.2944 0.2976 0.3023 0.3054 0.3078 0.3101 0.3132 0.3171 0.3179 0.3156
0.1754 0.1785 0.1825 0.1809 0.1778 0.1754 0.1738 0.1738 0.1754 0.1778 0.1809 0.1832 0.1840 0.1848 0.1895 0.1911 0.1911 0.1926 0.1950 0.1973 0.1989 0.1997 0.1997 0.1997 0.1989 0.1981 0.1966 0.1950 0.1942 0.1934 0.1942 0.1942 0.1942 0.1950 0.1942 0.1934 0.1934 0.1942 0.1966 0.2013 0.2044 0.2067 0.2083 0.2083 0.2075 0.2075 0.2106 0.2138 0.2177 0.2208 0.2240 0.2279 0.2310 0.2334 0.2357 0.2388 0.2412 0.2459 0.2482 0.2498 0.2506 0.2514 0.2522 0.2529 0.2545 0.2545 0.2561 0.2576 0.2584 0.2608 0.2623 0.2655 0.2670 0.2678 0.2662 0.2639 0.2616 0.2592 0.2576 0.2561 0.2561 0.2545 0.2553 0.2569 0.2569 0.2561 0.2514 0.2459 0.2428 0.2404 0.2388 0.2388 0.2404 0.2404 0.2412 0.2420 0.2428 0.2435 0.2435 0.2435 0.2443 0.2428 0.2428 0.2435 0.2451 0.2475 0.2498 0.2529 0.2553 0.2592 0.2631 0.2647 0.2662 0.2670 0.2670 0.2662 0.2662 0.2655 0.2647 0.2623 0.2623 0.2623 0.2623 0.2631 0.2655 0.2694 0.2733 0.2780 0.2811 0.2811 0.2772 0.2725 0.2702 0.2709 0.2717 0.2749 0.2764 0.2741 0.2709 0.2678 0.2647 0.2616 0.2600 0.2592 0.2584 0.2600 0.2623 0.2623 0.2631 0.2639 0.2639 0.2639 0.2655 0.2678 0.2686 0.2678 0.2678 0.2678 0.2647 0.2623 0.2584 0.2545 0.2522 0.2498 0.2467 0.2428 0.2396 0.2357 0.2318 0.2302 0.2294 0.2287 0.2279 0.2294 0.2334 0.2404 0.2428 0.2443 0.2451 0.2443 0.2420 0.2412 0.2412 0.2412 0.2404 0.2381 0.2357 0.2365 0.2388 0.2420 0.2443 0.2467 0.2498 0.2529 0.2569 0.2592 0.2616 0.2639 0.2686 0.2725 0.2764 0.2780 0.2811 0.2827 0.2858 0.2874 0.2874 0.2858 0.2827 0.2811 0.2780 0.2741 0.2686 0.2616 0.2576 0.2569 0.2569 0.2569 0.2584 0.2600 0.2631 0.2639 0.2631 0.2623 0.2623 0.2647 0.2702 0.2772 0.2866 0.2905 0.2937 0.2991 0.3015 0.3031 0.3046 0.3062 0.3070 0.3093 0.3117 0.3125 0.3109
0.1691 0.1738 0.1770 0.1770 0.1746 0.1731 0.1723 0.1715 0.1731 0.1762 0.1778 0.1778 0.1770 0.1785 0.1817 0.1856 0.1872 0.1887 0.1903 0.1919 0.1942 0.1950 0.1958 0.1958 0.1950 0.1942 0.1934 0.1919 0.1911 0.1903 0.1911 0.1911 0.1911 0.1903 0.1887 0.1879 0.1879 0.1911 0.1934 0.1958 0.1981 0.1997 0.2020 0.2028 0.2028 0.2044 0.2067 0.2099 0.2130 0.2177 0.2208 0.2247 0.2279 0.2302 0.2326 0.2357 0.2404 0.2443 0.2475 0.2498 0.2514 0.2522 0.2514 0.2537 0.2545 0.2561 0.2569 0.2576 0.2600 0.2639 0.2662 0.2670 0.2686 0.2694 0.2686 0.2670 0.2662 0.2655 0.2647 0.2639 0.2639 0.2616 0.2608 0.2592 0.2600 0.2592 0.2545 0.2498 0.2459 0.2443 0.2443 0.2451 0.2443 0.2459 0.2475 0.2475 0.2475 0.2475 0.2459 0.2475 0.2467 0.2451 0.2435 0.2435 0.2459 0.2490 0.2522 0.2545 0.2569 0.2608 0.2639 0.2678 0.2702 0.2717 0.2725 0.2725 0.2717 0.2709 0.2702 0.2702 0.2702 0.2702 0.2694 0.2686 0.2686 0.2709 0.2733 0.2764 0.2803 0.2803 0.2772 0.2725 0.2686 0.2670 0.2670 0.2694 0.2717 0.2725 0.2709 0.2686 0.2655 0.2623 0.2592 0.2569 0.2561 0.2561 0.2561 0.2569 0.2576 0.2584 0.2584 0.2584 0.2600 0.2616 0.2616 0.2623 0.2631 0.2631 0.2623 0.2608 0.2561 0.2537 0.2514 0.2482 0.2459 0.2428 0.2388 0.2349 0.2318 0.2302 0.2294 0.2279 0.2271 0.2287 0.2318 0.2365 0.2388 0.2404 0.2412 0.2396 0.2381 0.2365 0.2357 0.2365 0.2365 0.2357 0.2349 0.2365 0.2412 0.2459 0.2490 0.2498 0.2529 0.2561 0.2600 0.2623 0.2631 0.2655 0.2709 0.2772 0.2819 0.2866 0.2874 0.2890 0.2890 0.2882 0.2866 0.2835 0.2811 0.2772 0.2733 0.2717 0.2678 0.2608 0.2569 0.2537 0.2506 0.2514 0.2529 0.2529 0.2537 0.2561 0.2569 0.2584 0.2623 0.2670 0.2733 0.2819 0.2874 0.2921 0.2960 0.2991 0.3015 0.3023 0.3031 0.3038 0.3054 0.3062 0.3070 0.3062 0.3046
0.1644 0.1684 0.1715 0.1715 0.1707 0.1707 0.1691 0.1684 0.1699 0.1731 0.1746 0.1723 0.1731 0.1754 0.1793 0.1817 0.1832 0.1856 0.1864 0.1879 0.1903 0.1919 0.1926 0.1919 0.1903 0.1895 0.1895 0.1887 0.1872 0.1864 0.1864 0.1856 0.1856 0.1840 0.1825 0.1825 0.1832 0.1864 0.1887 0.1903 0.1926 0.1934 0.1966 0.1997 0.2005 0.2020 0.2044 0.2067 0.2106 0.2146 0.2185 0.2216 0.2232 0.2255 0.2287 0.2334 0.2373 0.2412 0.2443 0.2459 0.2467 0.2475 0.2482 0.2498 0.2522 0.2537 0.2553 0.2569 0.2584 0.2616 0.2623 0.2647 0.2662 0.2686 0.2686 0.2670 0.2678 0.2686 0.2694 0.2686 0.2678 0.2678 0.2655 0.2631 0.2616 0.2608 0.2576 0.2529 0.2506 0.2498 0.2514 0.2506 0.2522 0.2545 0.2553 0.2537 0.2529 0.2506 0.2506 0.2514 0.2490 0.2459 0.2451 0.2459 0.2490 0.2537 0.2553 0.2561 0.2592 0.2616 0.2662 0.2709 0.2749 0.2772 0.2780 0.2772 0.2772 0.2772 0.2756 0.2749 0.2749 0.2749 0.2733 0.2717 0.2717 0.2733 0.2741 0.2764 0.2780 0.2780 0.2749 0.2717 0.2678 0.2639 0.2639 0.2655 0.2670 0.2702 0.2709 0.2694 0.2670 0.2639 0.2600 0.2584 0.2569 0.2545 0.2529 0.2522 0.2529 0.2529 0.2529 0.2529 0.2529 0.2529 0.2537 0.2553 0.2569 0.2576 0.2576 0.2545 0.2529 0.2506 0.2498 0.2475 0.2459 0.2435 0.2404 0.2365 0.2326 0.2310 0.2294 0.2279 0.2263 0.2271 0.2302 0.2326 0.2334 0.2341 0.2349 0.2349 0.2341 0.2334 0.2318 0.2318 0.2326 0.2334 0.2365 0.2396 0.2443 0.2490 0.2514 0.2537 0.2545 0.2569 0.2608 0.2639 0.2647 0.2678 0.2741 0.2788 0.2850 0.2897 0.2921 0.2921 0.2913 0.2897 0.2874 0.2843 0.2811 0.2764 0.2717 0.2686 0.2655 0.2592 0.2545 0.2498 0.2459 0.2467 0.2475 0.2475 0.2482 0.2498 0.2537 0.2592 0.2647 0.2694 0.2756 0.2819 0.2890 0.2937 0.2976 0.2991 0.2991 0.2984 0.2991 0.3007 0.3023 0.3031 0.2999 0.2984 0.2960
0.1590 0.1629 0.1652 0.1660 0.1668 0.1660 0.1644 0.1644 0.1676 0.1707 0.1707 0.1699 0.1707 0.1738 0.1762 0.1778 0.1801 0.1817 0.1840 0.1864 0.1887 0.1903 0.1911 0.1895 0.1879 0.1872 0.1864 0.1856 0.1840 0.1832 0.1825 0.1817 0.1801 0.1793 0.1785 0.1785 0.1793 0.1817 0.1840 0.1864 0.1879 0.1895 0.1919 0.1950 0.1981 0.2013 0.2036 0.2060 0.2083 0.2122 0.2153 0.2169 0.2193 0.2216 0.2247 0.2294 0.2334 0.2373 0.2396 0.2404 0.2412 0.2428 0.2435 0.2451 0.2475 0.2498 0.2514 0.2529 0.2537 0.2537 0.2561 0.2584 0.2616 0.2623 0.2639 0.2655 0.2662 0.2686 0.2702 0.2702 0.2694 0.2670 0.2655 0.2631 0.2623 0.2608 0.2592 0.2561 0.2545 0.2545 0.2553 0.2561 0.2569 0.2592 0.2608 0.2608 0.2592 0.2569 0.2569 0.2553 0.2522 0.2498 0.2482 0.2490 0.2522 0.2561 0.2592 0.2600 0.2608 0.2631 0.2670 0.2725 0.2772 0.2796 0.2827 0.2827 0.2819 0.2827 0.2819 0.2811 0.2811 0.2780 0.2756 0.2733 0.2741 0.2749 0.2749 0.2756 0.2772 0.2749 0.2717 0.2686 0.2647 0.2623 0.2616 0.2623 0.2639 0.2662 0.2694 0.2709 0.2702 0.2678 0.2647 0.2616 0.2584 0.2553 0.2529 0.2514 0.2498 0.2490 0.2490 0.2475 0.2459 0.2459 0.2475 0.2498 0.2514 0.2522 0.2514 0.2498 0.2490 0.2482 0.2482 0.2490 0.2475 0.2459 0.2428 0.2388 0.2349 0.2326 0.2302 0.2279 0.2247 0.2232 0.2255 0.2279 0.2287 0.2287 0.2302 0.2294 0.2294 0.2287 0.2294 0.2294 0.2310 0.2349 0.2388 0.2420 0.2467 0.2498 0.2522 0.2553 0.2569 0.2592 0.2623 0.2655 0.2655 0.2686 0.2733 0.2788 0.2843 0.2882 0.2921 0.2937 0.2929 0.2905 0.2874 0.2843 0.2819 0.2772 0.2725 0.2686 0.2655 0.2616 0.2545 0.2490 0.2443 0.2435 0.2443 0.2443 0.2459 0.2498 0.2569 0.2639 0.2694 0.2749 0.2803 0.2858 0.2921 0.2960 0.2976 0.2968 0.2944 0.2929 0.2929 0.2944 0.2960 0.2960 0.2929 0.2913 0.2890
0.1527 0.1558 0.1582 0.1597 0.1605 0.1613 0.1605 0.1605 0.1629 0.1660 0.1668 0.1668 0.1676 0.1684 0.1699 0.1723 0.1754 0.1785 0.1825 0.1848 0.1879 0.1895 0.1887 0.1879 0.1864 0.1856 0.1848 0.1832 0.1817 0.1801 0.1793 0.1778 0.1754 0.1746 0.1746 0.1754 0.1778 0.1801 0.1817 0.1840 0.1856 0.1872 0.1887 0.1919 0.1966 0.1997 0.2028 0.2052 0.2060 0.2083 0.2106 0.2130 0.2146 0.2177 0.2216 0.2263 0.2310 0.2341 0.2357 0.2365 0.2381 0.2388 0.2396 0.2404 0.2412 0.2443 0.2467 0.2467 0.2459 0.2475 0.2482 0.2514 0.2545 0.2553 0.2584 0.2608 0.2631 0.2655 0.2670 0.2678 0.2662 0.2639 0.2623 0.2600 0.2592 0.2592 0.2592 0.2576 0.2569 0.2569 0.2569 0.2576 0.2592 0.2616 0.2631 0.2655 0.2655 0.2647 0.2639 0.2600 0.2569 0.2553 0.2529 0.2537 0.2553 0.2592 0.2616 0.2631 0.2639 0.2662 0.2702 0.2733 0.2756 0.2788 0.2819 0.2835 0.2843 0.2843 0.2858 0.2850 0.2850 0.2835 0.2796 0.2780 0.2756 0.2756 0.2756 0.2756 0.2741 0.2717 0.2686 0.2647 0.2616 0.2608 0.2592 0.2584 0.2600 0.2639 0.2670 0.2702 0.2725 0.2717 0.2678 0.2647 0.2623 0.2600 0.2561 0.2529 0.2506 0.2482 0.2451 0.2443 0.2428 0.2420 0.2420 0.2435 0.2459 0.2459 0.2451 0.2451 0.2459 0.2459 0.2475 0.2490 0.2490 0.2467 0.2435 0.2412 0.2381 0.2349 0.2318 0.2287 0.2255 0.2232 0.2224 0.2240 0.2255 0.2263 0.2255 0.2247 0.2255 0.2271 0.2279 0.2294 0.2310 0.2349 0.2381 0.2420 0.2459 0.2490 0.2514 0.2545 0.2576 0.2600 0.2631 0.2662 0.2678 0.2702 0.2741 0.2772 0.2819 0.2874 0.2921 0.2944 0.2960 0.2905 0.2866 0.2835 0.2803 0.2780 0.2741 0.2717 0.2702 0.2655 0.2616 0.2545 0.2459 0.2420 0.2404 0.2404 0.2412 0.2459 0.2537 0.2623 0.2709 0.2788 0.2843 0.2890 0.2921 0.2944 0.2944 0.2921 0.2890 0.2882 0.2882 0.2890 0.2890 0.2890 0.2866 0.2843 0.2827
0.1464 0.1504 0.1519 0.1527 0.1543 0.1558 0.1558 0.1558 0.1590 0.1613 0.1621 0.1621 0.1621 0.1621 0.1644 0.1668 0.1699 0.1754 0.1801 0.1825 0.1856 0.1864 0.1856 0.1856 0.1848 0.1832 0.1817 0.1801 0.1778 0.1770 0.1762 0.1746 0.1715 0.1707 0.1715 0.1738 0.1762 0.1793 0.1825 0.1848 0.1864 0.1872 0.1887 0.1926 0.1966 0.1997 0.2020 0.2036 0.2052 0.2067 0.2091 0.2114 0.2138 0.2177 0.2216 0.2247 0.2279 0.2310 0.2334 0.2341 0.2357 0.2365 0.2357 0.2357 0.2365 0.2388 0.2404 0.2412 0.2420 0.2420 0.2435 0.2443 0.2459 0.2490 0.2529 0.2576 0.2592 0.2616 0.2623 0.2631 0.2631 0.2608 0.2576 0.2561 0.2553 0.2569 0.2569 0.2569 0.2569 0.2569 0.2569 0.2569 0.2584 0.2600 0.2623 0.2639 0.2655 0.2678 0.2686 0.2655 0.2623 0.2608 0.2600 0.2584 0.2584 0.2623 0.2647 0.2655 0.2655 0.2670 0.2694 0.2709 0.2733 0.2756 0.2788 0.2811 0.2827 0.2843 0.2858 0.2858 0.2858 0.2827 0.2803 0.2772 0.2764 0.2756 0.2749 0.2733 0.2717 0.2694 0.2647 0.2616 0.2592 0.2576 0.2561 0.2561 0.2584 0.2623 0.2662 0.2694 0.2725 0.2733 0.2709 0.2678 0.2662 0.2631 0.2600 0.2569 0.2537 0.2498 0.2459 0.2435 0.2428 0.2404 0.2381 0.2373 0.2373 0.2373 0.2381 0.2404 0.2412 0.2428 0.2451 0.2467 0.2482 0.2459 0.2443 0.2420 0.2388 0.2349 0.2318 0.2294 0.2263 0.2232 0.2224 0.2224 0.2232 0.2240 0.2232 0.2240 0.2263 0.2287 0.2310 0.2334 0.2341 0.2349 0.2373 0.2412 0.2443 0.2475 0.2506 0.2537 0.2569 0.2592 0.2616 0.2647 0.2670 0.2709 0.2741 0.2788 0.2843 0.2897 0.2929 0.2960 0.2952 0.2905 0.2858 0.2835 0.2827 0.2803 0.2780 0.2756 0.2733 0.2678 0.2623 0.2576 0.2537 0.2428 0.2381 0.2373 0.2388 0.2435 0.2498 0.2584 0.2670 0.2741 0.2811 0.2850 0.2890 0.2897 0.2866 0.2858 0.2850 0.2850 0.2850 0.2850 0.2843 0.2819 0.2796 0.2780 0.2772
0.1449 0.1457 0.1472 0.1480 0.1488 0.1496 0.1496 0.1519 0.1535 0.1558 0.1566 0.1558 0.1558 0.1582 0.1605 0.1629 0.1668 0.1707 0.1746 0.1778 0.1801 0.1809 0.1809 0.1809 0.1809 0.1801 0.1793 0.1778 0.1746 0.1731 0.1723 0.1707 0.1684 0.1676 0.1699 0.1723 0.1754 0.1801 0.1840 0.1872 0.1903 0.1926 0.1966 0.1989 0.2005 0.2013 0.2036 0.2060 0.2067 0.2083 0.2091 0.2114 0.2138 0.2161 0.2193 0.2232 0.2255 0.2287 0.2318 0.2341 0.2349 0.2349 0.2334 0.2318 0.2318 0.2326 0.2341 0.2357 0.2365 0.2388 0.2396 0.2404 0.2420 0.2435 0.2467 0.2514 0.2553 0.2569 0.2584 0.2592 0.2584 0.2569 0.2537 0.2522 0.2514 0.2514 0.2514 0.2529 0.2545 0.2553 0.2545 0.2545 0.2553 0.2569 0.2584 0.2600 0.2623 0.2655 0.2670 0.2662 0.2639 0.2639 0.2639 0.2623 0.2623 0.2631 0.2647 0.2655 0.2655 0.2662 0.2670 0.2678 0.2702 0.2725 0.2749 0.2772 0.2796 0.2819 0.2843 0.2835 0.2835 0.2803 0.2764 0.2741 0.2725 0.2725 0.2725 0.2709 0.2694 0.2662 0.2623 0.2584 0.2561 0.2537 0.2529 0.2545 0.2576 0.2616 0.2655 0.2686 0.2725 0.2741 0.2733 0.2725 0.2709 0.2678 0.2639 0.2600 0.2561 0.2522 0.2482 0.2451 0.2428 0.2404 0.2373 0.2341 0.2334 0.2326 0.2334 0.2349 0.2365 0.2388 0.2420 0.2451 0.2459 0.2451 0.2443 0.2412 0.2365 0.2318 0.2302 0.2287 0.2247 0.2224 0.2208 0.2208 0.2208 0.2224 0.2247 0.2263 0.2294 0.2318 0.2357 0.2396 0.2404 0.2404 0.2412 0.2420 0.2435 0.2467 0.2498 0.2529 0.2561 0.2584 0.2608 0.2639 0.2678 0.2709 0.2749 0.2811 0.2866 0.2913 0.2937 0.2952 0.2944 0.2897 0.2866 0.2858 0.2850 0.2850 0.2819 0.2796 0.2749 0.2694 0.2662 0.2631 0.2592 0.2506 0.2412 0.2388 0.2381 0.2396 0.2451 0.2529 0.2608 0.2678 0.2733 0.2788 0.2819 0.2811 0.2796 0.2788 0.2796 0.2803 0.2803 0.2803 0.2796 0.2788 0.2772 0.2764 0.2756
0.1410 0.1417 0.1425 0.1441 0.1449 0.1457 0.1464 0.1480 0.1496 0.1504 0.1504 0.1496 0.1511 0.1535 0.1558 0.1597 0.1637 0.1676 0.1699 0.1723 0.1738 0.1754 0.1754 0.1754 0.1762 0.1762 0.1754 0.1738 0.1723 0.1707 0.1699 0.1691 0.1668 0.1660 0.1676 0.1707 0.1754 0.1801 0.1856 0.1911 0.1958 0.1997 0.2020 0.2028 0.2013 0.2020 0.2028 0.2052 0.2060 0.2067 0.2075 0.2091 0.2106 0.2130 0.2161 0.2193 0.2224 0.2255 0.2294 0.2326 0.2334 0.2326 0.2318 0.2310 0.2310 0.2310 0.2318 0.2326 0.2334 0.2349 0.2373 0.2381 0.2388 0.2396 0.2428 0.2459 0.2498 0.2537 0.2553 0.2553 0.2561 0.2553 0.2529 0.2490 0.2467 0.2435 0.2451 0.2482 0.2506 0.2514 0.2506 0.2498 0.2506 0.2514 0.2522 0.2537 0.2569 0.2600 0.2616 0.2616 0.2608 0.2616 0.2631 0.2655 0.2655 0.2662 0.2655 0.2639 0.2639 0.2631 0.2631 0.2639 0.2662 0.2686 0.2709 0.2741 0.2772 0.2796 0.2803 0.2803 0.2803 0.2780 0.2749 0.2717 0.2694 0.2686 0.2678 0.2670 0.2662 0.2631 0.2592 0.2553 0.2522 0.2506 0.2506 0.2522 0.2561 0.2600 0.2655 0.2694 0.2717 0.2741 0.2756 0.2764 0.2756 0.2709 0.2670 0.2631 0.2600 0.2569 0.2529 0.2498 0.2475 0.2443 0.2404 0.2357 0.2326 0.2318 0.2310 0.2302 0.2326 0.2341 0.2373 0.2404 0.2428 0.2428 0.2428 0.2412 0.2365 0.2326 0.2302 0.2287 0.2255 0.2208 0.2193 0.2185 0.2193 0.2224 0.2247 0.2271 0.2310 0.2349 0.2388 0.2412 0.2428 0.2435 0.2435 0.2428 0.2443 0.2467 0.2490 0.2522 0.2553 0.2576 0.2608 0.2647 0.2670 0.2709 0.2741 0.2796 0.2858 0.2890 0.2913 0.2929 0.2937 0.2929 0.2905 0.2882 0.2874 0.2874 0.2850 0.2811 0.2756 0.2717 0.2686 0.2655 0.2616 0.2553 0.2475 0.2404 0.2388 0.2404 0.2443 0.2490 0.2553 0.2600 0.2655 0.2702 0.2717 0.2717 0.2702 0.2709 0.2733 0.2741 0.2749 0.2756 0.2764 0.2764 0.2764 0.2756 0.2733
0.1370 0.1370 0.1378 0.1386 0.1402 0.1410 0.1417 0.1441 0.1449 0.1464 0.1457 0.1464 0.1472 0.1504 0.1519 0.1558 0.1597 0.1637 0.1660 0.1684 0.1691 0.1699 0.1707 0.1699 0.1715 0.1707 0.1707 0.1699 0.1684 0.1668 0.1660 0.1660 0.1652 0.1652 0.1660 0.1684 0.1738 0.1793 0.1856 0.1919 0.1958 0.1981 0.2005 0.1989 0.1989 0.1989 0.2005 0.2020 0.2036 0.2052 0.2044 0.2044 0.2060 0.2083 0.2114 0.2146 0.2177 0.2200 0.2240 0.2271 0.2294 0.2302 0.2302 0.2302 0.2302 0.2302 0.2294 0.2302 0.2318 0.2326 0.2334 0.2349 0.2365 0.2381 0.2396 0.2428 0.2475 0.2514 0.2537 0.2561 0.2569 0.2545 0.2522 0.2482 0.2443 0.2412 0.2404 0.2435 0.2459 0.2459 0.2451 0.2443 0.2443 0.2459 0.2475 0.2498 0.2522 0.2545 0.2545 0.2553 0.2561 0.2584 0.2623 0.2647 0.2670 0.2662 0.2639 0.2616 0.2608 0.2600 0.2600 0.2623 0.2639 0.2662 0.2686 0.2725 0.2756 0.2764 0.2756 0.2756 0.2756 0.2741 0.2717 0.2686 0.2662 0.2639 0.2631 0.2631 0.2623 0.2592 0.2561 0.2522 0.2490 0.2475 0.2475 0.2506 0.2545 0.2592 0.2647 0.2678 0.2709 0.2733 0.2764 0.2796 0.2780 0.2733 0.2686 0.2670 0.2647 0.2639 0.2608 0.2569 0.2537 0.2490 0.2435 0.2381 0.2349 0.2318 0.2287 0.2279 0.2294 0.2310 0.2334 0.2365 0.2381 0.2404 0.2412 0.2412 0.2396 0.2365 0.2326 0.2287 0.2255 0.2216 0.2193 0.2177 0.2185 0.2216 0.2255 0.2287 0.2326 0.2373 0.2396 0.2412 0.2420 0.2428 0.2428 0.2428 0.2435 0.2459 0.2482 0.2506 0.2529 0.2561 0.2608 0.2639 0.2662 0.2694 0.2733 0.2780 0.2835 0.2874 0.2890 0.2913 0.2929 0.2929 0.2921 0.2890 0.2882 0.2866 0.2843 0.2796 0.2764 0.2725 0.2686 0.2639 0.2600 0.2553 0.2482 0.2412 0.2373 0.2373 0.2404 0.2443 0.2490 0.2537 0.2592 0.2623 0.2655 0.2647 0.2639 0.2655 0.2670 0.2678 0.2686 0.2709 0.2733 0.2741 0.2741 0.2725 0.2694
0.1355 0.1355 0.1363 0.1370 0.1370 0.1370 0.1378 0.1386 0.1402 0.1410 0.1417 0.1425 0.1449 0.1457 0.1480 0.1504 0.1527 0.1566 0.1605 0.1629 0.1644 0.1644 0.1637 0.1637 0.1637 0.1644 0.1644 0.1637 0.1621 0.1605 0.1613 0.1613 0.1621 0.1629 0.1652 0.1684 0.1731 0.1793 0.1864 0.1919 0.1934 0.1942 0.1934 0.1926 0.1919 0.1942 0.1966 0.1981 0.1997 0.2005 0.2005 0.2005 0.2020 0.2044 0.2075 0.2106 0.2130 0.2161 0.2193 0.2224 0.2247 0.2263 0.2279 0.2287 0.2287 0.2279 0.2271 0.2271 0.2279 0.2294 0.2302 0.2318 0.2341 0.2357 0.2396 0.2435 0.2482 0.2506 0.2529 0.2561 0.2561 0.2545 0.2514 0.2475 0.2428 0.2381 0.2373 0.2388 0.2396 0.2404 0.2404 0.2388 0.2388 0.2404 0.2435 0.2467 0.2490 0.2490 0.2498 0.2506 0.2537 0.2576 0.2608 0.2631 0.2639 0.2631 0.2616 0.2600 0.2576 0.2569 0.2576 0.2600 0.2623 0.2631 0.2647 0.2678 0.2717 0.2733 0.2733 0.2709 0.2709 0.2694 0.2670 0.2647 0.2623 0.2608 0.2600 0.2592 0.2584 0.2569 0.2545 0.2506 0.2475 0.2459 0.2475 0.2498 0.2537 0.2584 0.2616 0.2647 0.2670 0.2709 0.2749 0.2780 0.2796 0.2764 0.2733 0.2702 0.2686 0.2662 0.2631 0.2584 0.2545 0.2490 0.2435 0.2388 0.2349 0.2326 0.2294 0.2279 0.2279 0.2287 0.2302 0.2326 0.2349 0.2365 0.2388 0.2396 0.2396 0.2381 0.2326 0.2279 0.2247 0.2216 0.2193 0.2177 0.2177 0.2216 0.2255 0.2302 0.2341 0.2373 0.2381 0.2388 0.2396 0.2404 0.2412 0.2420 0.2435 0.2451 0.2467 0.2498 0.2529 0.2569 0.2592 0.2616 0.2647 0.2678 0.2709 0.2756 0.2803 0.2850 0.2882 0.2905 0.2921 0.2921 0.2905 0.2890 0.2866 0.2850 0.2827 0.2803 0.2780 0.2749 0.2694 0.2623 0.2569 0.2529 0.2498 0.2412 0.2349 0.2326 0.2341 0.2381 0.2428 0.2498 0.2545 0.2584 0.2576 0.2576 0.2584 0.2608 0.2631 0.2647 0.2655 0.2662 0.2678 0.2694 0.2694 0.2678 0.2647
0.1347 0.1355 0.1363 0.1363 0.1363 0.1363 0.1355 0.1363 0.1378 0.1386 0.1386 0.1402 0.1410 0.1433 0.1449 0.1472 0.1488 0.1511 0.1535 0.1558 0.1574 0.1590 0.1574 0.1566 0.1566 0.1574 0.1590 0.1574 0.1558 0.1551 0.1558 0.1566 0.1597 0.1629 0.1668 0.1707 0.1754 0.1817 0.1887 0.1919 0.1919 0.1911 0.1887 0.1864 0.1872 0.1903 0.1934 0.1950 0.1950 0.1950 0.1942 0.1950 0.1966 0.2005 0.2044 0.2075 0.2106 0.2153 0.2193 0.2208 0.2224 0.2255 0.2279 0.2279 0.2271 0.2263 0.2240 0.2247 0.2263 0.2279 0.2294 0.2310 0.2326 0.2341 0.2373 0.2412 0.2459 0.2490 0.2514 0.2529 0.2522 0.2506 0.2475 0.2451 0.2420 0.2381 0.2349 0.2349 0.2357 0.2365 0.2365 0.2349 0.2349 0.2365 0.2396 0.2435 0.2443 0.2443 0.2451 0.2482 0.2522 0.2561 0.2584 0.2600 0.2608 0.2600 0.2592 0.2569 0.2553 0.2537 0.2537 0.2561 0.2576 0.2600 0.2623 0.2647 0.2670 0.2694 0.2694 0.2678 0.2678 0.2662 0.2631 0.2600 0.2576 0.2569 0.2561 0.2553 0.2553 0.2545 0.2522 0.2482 0.2451 0.2451 0.2459 0.2482 0.2514 0.2553 0.2576 0.2608 0.2647 0.2694 0.2725 0.2749 0.2780 0.2796 0.2788 0.2756 0.2717 0.2670 0.2616 0.2569 0.2529 0.2482 0.2428 0.2396 0.2365 0.2341 0.2318 0.2287 0.2271 0.2263 0.2263 0.2279 0.2294 0.2318 0.2341 0.2357 0.2373 0.2357 0.2318 0.2271 0.2232 0.2200 0.2185 0.2169 0.2169 0.2200 0.2247 0.2294 0.2318 0.2334 0.2341 0.2349 0.2357 0.2373 0.2396 0.2412 0.2443 0.2467 0.2498 0.2537 0.2569 0.2576 0.2592 0.2616 0.2647 0.2678 0.2709 0.2749 0.2796 0.2843 0.2874 0.2897 0.2905 0.2905 0.2897 0.2874 0.2858 0.2843 0.2827 0.2811 0.2780 0.2741 0.2686 0.2631 0.2576 0.2529 0.2467 0.2404 0.2334 0.2302 0.2302 0.2341 0.2404 0.2467 0.2522 0.2537 0.2537 0.2537 0.2553 0.2576 0.2608 0.2616 0.2623 0.2623 0.2631 0.2647 0.2662 0.2639 0.2608
0.1339 0.1339 0.1347 0.1355 0.1363 0.1370 0.1370 0.1370 0.1378 0.1378 0.1386 0.1386 0.1394 0.1410 0.1425 0.1441 0.1457 0.1472 0.1480 0.1496 0.1504 0.1496 0.1488 0.1496 0.1496 0.1511 0.1511 0.1519 0.1511 0.1511 0.1527 0.1551 0.1613 0.1668 0.1707 0.1738 0.1793 0.1840 0.1879 0.1903 0.1887 0.1872 0.1856 0.1840 0.1840 0.1872 0.1895 0.1903 0.1903 0.1895 0.1903 0.1911 0.1942 0.1981 0.2020 0.2060 0.2099 0.2146 0.2169 0.2193 0.2216 0.2240 0.2255 0.2255 0.2232 0.2216 0.2216 0.2216 0.2232 0.2263 0.2287 0.2294 0.2302 0.2318 0.2341 0.2373 0.2412 0.2451 0.2475 0.2490 0.2482 0.2459 0.2435 0.2412 0.2388 0.2365 0.2334 0.2310 0.2310 0.2310 0.2310 0.2302 0.2310 0.2341 0.2357 0.2396 0.2404 0.2404 0.2428 0.2467 0.2506 0.2529 0.2553 0.2561 0.2576 0.2576 0.2569 0.2553 0.2529 0.2506 0.2498 0.2522 0.2545 0.2576 0.2608 0.2623 0.2639 0.2655 0.2655 0.2639 0.2639 0.2623 0.2592 0.2569 0.2545 0.2529 0.2514 0.2514 0.2522 0.2514 0.2498 0.2467 0.2435 0.2420 0.2420 0.2459 0.2490 0.2522 0.2545 0.2569 0.2608 0.2662 0.2702 0.2725 0.2756 0.2788 0.2788 0.2756 0.2709 0.2662 0.2623 0.2576 0.2537 0.2490 0.2451 0.2428 0.2388 0.2349 0.2318 0.2294 0.2263 0.2240 0.2232 0.2240 0.2255 0.2263 0.2279 0.2302 0.2318 0.2294 0.2271 0.2247 0.2208 0.2185 0.2161 0.2146 0.2146 0.2169 0.2208 0.2240 0.2263 0.2287 0.2294 0.2302 0.2326 0.2357 0.2381 0.2412 0.2459 0.2498 0.2545 0.2576 0.2592 0.2600 0.2616 0.2639 0.2670 0.2686 0.2717 0.2764 0.2803 0.2835 0.2858 0.2874 0.2882 0.2890 0.2874 0.2850 0.2850 0.2850 0.2843 0.2819 0.2788 0.2749 0.2717 0.2655 0.2600 0.2545 0.2498 0.2435 0.2373 0.2310 0.2271 0.2310 0.2365 0.2420 0.2459 0.2498 0.2522 0.2514 0.2529 0.2545 0.2553 0.2561 0.2569 0.2569 0.2584 0.2616 0.2623 0.2600 0.2576
0.1339 0.1339 0.1347 0.1363 0.1370 0.1370 0.1378 0.1370 0.1370 0.1386 0.1386 0.1386 0.1378 0.1378 0.1386 0.1402 0.1417 0.1425 0.1425 0.1441 0.1441 0.1441 0.1441 0.1441 0.1441 0.1449 0.1457 0.1472 0.1472 0.1480 0.1511 0.1551 0.1597 0.1660 0.1699 0.1738 0.1785 0.1825 0.1848 0.1856 0.1840 0.1825 0.1817 0.1809 0.1817 0.1840 0.1856 0.1864 0.1848 0.1848 0.1864 0.1887 0.1919 0.1950 0.1989 0.2036 0.2067 0.2099 0.2138 0.2177 0.2200 0.2224 0.2240 0.2224 0.2200 0.2193 0.2185 0.2185 0.2193 0.2216 0.2240 0.2263 0.2271 0.2279 0.2302 0.2334 0.2365 0.2388 0.2420 0.2459 0.2459 0.2435 0.2404 0.2373 0.2357 0.2334 0.2294 0.2279 0.2263 0.2263 0.2263 0.2263 0.2271 0.2287 0.2318 0.2341 0.2357 0.2381 0.2420 0.2467 0.2498 0.2522 0.2522 0.2537 0.2545 0.2545 0.2529 0.2506 0.2482 0.2459 0.2467 0.2490 0.2529 0.2553 0.2576 0.2592 0.2616 0.2639 0.2631 0.2616 0.2616 0.2592 0.2553 0.2529 0.2514 0.2498 0.2490 0.2482 0.2482 0.2475 0.2475 0.2443 0.2420 0.2396 0.2404 0.2428 0.2467 0.2498 0.2522 0.2545 0.2576 0.2623 0.2662 0.2694 0.2725 0.2749 0.2749 0.2725 0.2694 0.2662 0.2631 0.2616 0.2576 0.2529 0.2498 0.2467 0.2420 0.2381 0.2341 0.2302 0.2271 0.2240 0.2216 0.2208 0.2208 0.2208 0.2216 0.2232 0.2240 0.2240 0.2232 0.2216 0.2200 0.2177 0.2146 0.2122 0.2122 0.2138 0.2161 0.2208 0.2240 0.2247 0.2271 0.2294 0.2334 0.2388 0.2396 0.2428 0.2482 0.2529 0.2561 0.2592 0.2608 0.2623 0.2639 0.2678 0.2694 0.2702 0.2725 0.2756 0.2788 0.2811 0.2827 0.2850 0.2850 0.2843 0.2827 0.2827 0.2835 0.2835 0.2827 0.2796 0.2764 0.2756 0.2717 0.2670 0.2608 0.2569 0.2529 0.2467 0.2373 0.2302 0.2279 0.2287 0.2341 0.2373 0.2404 0.2443 0.2475 0.2490 0.2490 0.2498 0.2498 0.2498 0.2506 0.2514 0.2522 0.2553 0.2569 0.2569 0.2545
0.1347 0.1347 0.1355 0.1370 0.1378 0.1378 0.1378 0.1370 0.1370 0.1378 0.1386 0.1378 0.1370 0.1363 0.1363 0.1370 0.1378 0.1378 0.1386 0.1394 0.1402 0.1402 0.1394 0.1394 0.1402 0.1410 0.1417 0.1425 0.1433 0.1457 0.1496 0.1519 0.1558 0.1605 0.1652 0.1699 0.1754 0.1785 0.1793 0.1785 0.1770 0.1770 0.1770 0.1778 0.1793 0.1801 0.1809 0.1809 0.1793 0.1801 0.1832 0.1872 0.1911 0.1942 0.1966 0.2005 0.2044 0.2083 0.2114 0.2146 0.2185 0.2208 0.2216 0.2200 0.2185 0.2169 0.2161 0.2153 0.2153 0.2169 0.2177 0.2193 0.2208 0.2232 0.2263 0.2302 0.2326 0.2349 0.2381 0.2428 0.2435 0.2412 0.2373 0.2341 0.2326 0.2302 0.2279 0.2255 0.2247 0.2232 0.2224 0.2216 0.2224 0.2247 0.2271 0.2302 0.2326 0.2357 0.2404 0.2435 0.2467 0.2490 0.2498 0.2498 0.2498 0.2482 0.2467 0.2451 0.2435 0.2428 0.2435 0.2459 0.2482 0.2498 0.2522 0.2545 0.2592 0.2608 0.2616 0.2600 0.2600 0.2569 0.2537 0.2514 0.2498 0.2482 0.2467 0.2467 0.2459 0.2451 0.2443 0.2428 0.2404 0.2396 0.2404 0.2428 0.2451 0.2482 0.2514 0.2545 0.2569 0.2600 0.2631 0.2662 0.2694 0.2702 0.2702 0.2686 0.2678 0.2662 0.2655 0.2639 0.2616 0.2569 0.2537 0.2506 0.2467 0.2420 0.2373 0.2334 0.2294 0.2255 0.2224 0.2200 0.2193 0.2185 0.2185 0.2185 0.2193 0.2200 0.2200 0.2193 0.2177 0.2169 0.2138 0.2114 0.2114 0.2146 0.2193 0.2232 0.2255 0.2279 0.2302 0.2334 0.2381 0.2404 0.2435 0.2459 0.2490 0.2522 0.2545 0.2576 0.2600 0.2616 0.2647 0.2662 0.2678 0.2694 0.2717 0.2741 0.2772 0.2803 0.2819 0.2819 0.2811 0.2796 0.2788 0.2780 0.2780 0.2772 0.2764 0.2725 0.2709 0.2686 0.2647 0.2600 0.2592 0.2561 0.2522 0.2475 0.2373 0.2318 0.2279 0.2271 0.2302 0.2334 0.2365 0.2388 0.2420 0.2428 0.2443 0.2459 0.2459 0.2459 0.2459 0.2443 0.2459 0.2482 0.2514 0.2514 0.2498
0.1355 0.1363 0.1363 0.1370 0.1378 0.1378 0.1370 0.1370 0.1363 0.1370 0.1370 0.1370 0.1363 0.1363 0.1363 0.1363 0.1370 0.1370 0.1370 0.1378 0.1386 0.1378 0.1378 0.1378 0.1378 0.1386 0.1394 0.1402 0.1417 0.1433 0.1464 0.1480 0.1511 0.1558 0.1613 0.1660 0.1707 0.1731 0.1731 0.1738 0.1731 0.1731 0.1746 0.1746 0.1746 0.1746 0.1746 0.1754 0.1762 0.1793 0.1825 0.1872 0.1911 0.1950 0.1973 0.2005 0.2036 0.2067 0.2099 0.2122 0.2146 0.2169 0.2177 0.2177 0.2153 0.2138 0.2122 0.2130 0.2138 0.2130 0.2130 0.2146 0.2161 0.2185 0.2224 0.2263 0.2302 0.2326 0.2373 0.2412 0.2412 0.2381 0.2341 0.2310 0.2287 0.2271 0.2255 0.2240 0.2232 0.2208 0.2185 0.2177 0.2200 0.2224 0.2255 0.2279 0.2310 0.2341 0.2381 0.2412 0.2435 0.2459 0.2467 0.2459 0.2451 0.2435 0.2420 0.2396 0.2388 0.2388 0.2404 0.2412 0.2412 0.2443 0.2490 0.2522 0.2553 0.2576 0.2576 0.2569 0.2569 0.2553 0.2522 0.2498 0.2475 0.2443 0.2428 0.2420 0.2420 0.2412 0.2412 0.2412 0.2388 0.2381 0.2396 0.2412 0.2435 0.2459 0.2506 0.2545 0.2576 0.2600 0.2623 0.2647 0.2655 0.2655 0.2639 0.2639 0.2639 0.2631 0.2623 0.2616 0.2592 0.2569 0.2553 0.2514 0.2482 0.2443 0.2420 0.2396 0.2357 0.2302 0.2271 0.2232 0.2208 0.2185 0.2161 0.2161 0.2161 0.2161 0.2161 0.2153 0.2153 0.2146 0.2130 0.2122 0.2138 0.2169 0.2200 0.2240 0.2287 0.2318 0.2349 0.2381 0.2396 0.2428 0.2451 0.2475 0.2506 0.2522 0.2545 0.2561 0.2584 0.2608 0.2623 0.2639 0.2655 0.2678 0.2694 0.2717 0.2749 0.2788 0.2796 0.2788 0.2772 0.2756 0.2733 0.2725 0.2709 0.2694 0.2678 0.2655 0.2647 0.2631 0.2608 0.2561 0.2537 0.2514 0.2482 0.2428 0.2365 0.2302 0.2255 0.2247 0.2279 0.2326 0.2349 0.2373 0.2381 0.2388 0.2396 0.2404 0.2404 0.2404 0.2396 0.2381 0.2373 0.2404 0.2435 0.2443 0.2435
0.1363 0.1355 0.1355 0.1355 0.1363 0.1370 0.1370 0.1370 0.1370 0.1370 0.1370 0.1363 0.1363 0.1363 0.1363 0.1370 0.1378 0.1370 0.1370 0.1378 0.1386 0.1386 0.1378 0.1386 0.1378 0.1386 0.1386 0.1394 0.1410 0.1433 0.1441 0.1457 0.1480 0.1519 0.1558 0.1605 0.1644 0.1676 0.1684 0.1684 0.1691 0.1707 0.1715 0.1707 0.1699 0.1699 0.1707 0.1723 0.1754 0.1793 0.1840 0.1879 0.1903 0.1942 0.1973 0.1997 0.2013 0.2028 0.2044 0.2075 0.2106 0.2122 0.2138 0.2138 0.2130 0.2106 0.2099 0.2099 0.2099 0.2099 0.2099 0.2114 0.2122 0.2146 0.2177 0.2216 0.2240 0.2294 0.2349 0.2381 0.2373 0.2341 0.2310 0.2287 0.2255 0.2232 0.2224 0.2216 0.2208 0.2185 0.2161 0.2161 0.2185 0.2208 0.2224 0.2255 0.2294 0.2334 0.2365 0.2388 0.2404 0.2428 0.2435 0.2428 0.2404 0.2388 0.2373 0.2357 0.2341 0.2341 0.2349 0.2357 0.2365 0.2388 0.2435 0.2482 0.2514 0.2529 0.2514 0.2514 0.2514 0.2498 0.2482 0.2459 0.2435 0.2404 0.2373 0.2365 0.2357 0.2349 0.2349 0.2349 0.2349 0.2341 0.2357 0.2388 0.2412 0.2435 0.2475 0.2545 0.2576 0.2600 0.2623 0.2623 0.2600 0.2584 0.2576 0.2584 0.2584 0.2576 0.2569 0.2561 0.2561 0.2561 0.2545 0.2522 0.2482 0.2459 0.2443 0.2428 0.2412 0.2381 0.2341 0.2302 0.2263 0.2224 0.2185 0.2153 0.2138 0.2122 0.2122 0.2122 0.2122 0.2122 0.2130 0.2146 0.2169 0.2193 0.2224 0.2263 0.2310 0.2341 0.2365 0.2388 0.2420 0.2443 0.2475 0.2498 0.2506 0.2529 0.2537 0.2545 0.2553 0.2576 0.2592 0.2608 0.2639 0.2670 0.2686 0.2694 0.2702 0.2733 0.2749 0.2741 0.2725 0.2702 0.2686 0.2670 0.2662 0.2647 0.2616 0.2592 0.2576 0.2576 0.2569 0.2522 0.2482 0.2451 0.2412 0.2373 0.2318 0.2279 0.2224 0.2224 0.2255 0.2302 0.2349 0.2357 0.2365 0.2373 0.2373 0.2365 0.2349 0.2334 0.2334 0.2326 0.2334 0.2349 0.2365 0.2365 0.2365
0.1363 0.1363 0.1355 0.1355 0.1363 0.1370 0.1378 0.1378 0.1378 0.1370 0.1370 0.1370 0.1378 0.1370 0.1370 0.1370 0.1378 0.1378 0.1378 0.1386 0.1386 0.1386 0.1386 0.1378 0.1370 0.1378 0.1386 0.1402 0.1417 0.1425 0.1417 0.1433 0.1457 0.1488 0.1511 0.1543 0.1590 0.1621 0.1637 0.1644 0.1652 0.1668 0.1684 0.1684 0.1676 0.1676 0.1691 0.1715 0.1746 0.1778 0.1832 0.1872 0.1903 0.1919 0.1934 0.1958 0.1966 0.1973 0.1989 0.2028 0.2067 0.2114 0.2130 0.2138 0.2114 0.2091 0.2075 0.2075 0.2083 0.2083 0.2075 0.2075 0.2091 0.2106 0.2138 0.2177 0.2208 0.2247 0.2294 0.2326 0.2326 0.2310 0.2287 0.2255 0.2232 0.2208 0.2193 0.2185 0.2177 0.2161 0.2138 0.2146 0.2169 0.2193 0.2216 0.2247 0.2279 0.2318 0.2349 0.2373 0.2396 0.2404 0.2396 0.2381 0.2365 0.2349 0.2334 0.2310 0.2302 0.2302 0.2318 0.2318 0.2334 0.2357 0.2404 0.2443 0.2467 0.2475 0.2459 0.2443 0.2443 0.2435 0.2435 0.2420 0.2396 0.2365 0.2341 0.2310 0.2294 0.2287 0.2294 0.2294 0.2287 0.2302 0.2326 0.2349 0.2388 0.2420 0.2467 0.2522 0.2561 0.2592 0.2600 0.2592 0.2569 0.2545 0.2537 0.2537 0.2529 0.2529 0.2514 0.2522 0.2529 0.2529 0.2529 0.2522 0.2498 0.2467 0.2459 0.2443 0.2428 0.2396 0.2373 0.2341 0.2310 0.2271 0.2216 0.2185 0.2146 0.2122 0.2099 0.2099 0.2106 0.2122 0.2138 0.2169 0.2193 0.2216 0.2240 0.2279 0.2310 0.2341 0.2365 0.2396 0.2412 0.2443 0.2467 0.2475 0.2490 0.2498 0.2490 0.2490 0.2506 0.2537 0.2561 0.2576 0.2600 0.2639 0.2655 0.2655 0.2655 0.2678 0.2686 0.2686 0.2686 0.2662 0.2639 0.2623 0.2616 0.2592 0.2576 0.2537 0.2522 0.2522 0.2514 0.2482 0.2451 0.2420 0.2381 0.2326 0.2287 0.2247 0.2216 0.2216 0.2240 0.2287 0.2334 0.2357 0.2357 0.2357 0.2357 0.2349 0.2318 0.2294 0.2287 0.2287 0.2294 0.2294 0.2302 0.2302 0.2310
0.1370 0.1370 0.1370 0.1370 0.1378 0.1378 0.1378 0.1378 0.1378 0.1370 0.1370 0.1378 0.1386 0.1378 0.1378 0.1378 0.1378 0.1378 0.1378 0.1378 0.1386 0.1386 0.1378 0.1370 0.1370 0.1378 0.1386 0.1402 0.1410 0.1410 0.1402 0.1402 0.1425 0.1449 0.1480 0.1504 0.1535 0.1574 0.1605 0.1613 0.1621 0.1629 0.1652 0.1668 0.1668 0.1660 0.1684 0.1715 0.1738 0.1778 0.1832 0.1872 0.1895 0.1903 0.1903 0.1903 0.1919 0.1934 0.1966 0.2005 0.2052 0.2091 0.2122 0.2130 0.2099 0.2060 0.2044 0.2036 0.2044 0.2036 0.2028 0.2036 0.2052 0.2067 0.2106 0.2146 0.2177 0.2216 0.2255 0.2294 0.2294 0.2279 0.2247 0.2224 0.2193 0.2169 0.2153 0.2146 0.2138 0.2122 0.2114 0.2114 0.2146 0.2185 0.2216 0.2240 0.2271 0.2302 0.2326 0.2357 0.2373 0.2365 0.2357 0.2349 0.2334 0.2318 0.2294 0.2271 0.2263 0.2271 0.2279 0.2294 0.2326 0.2357 0.2388 0.2404 0.2428 0.2435 0.2420 0.2396 0.2396 0.2388 0.2381 0.2373 0.2357 0.2341 0.2318 0.2279 0.2247 0.2240 0.2240 0.2240 0.2240 0.2247 0.2279 0.2326 0.2357 0.2396 0.2428 0.2475 0.2514 0.2537 0.2553 0.2553 0.2537 0.2522 0.2522 0.2514 0.2506 0.2475 0.2467 0.2475 0.2490 0.2490 0.2506 0.2522 0.2514 0.2506 0.2482 0.2451 0.2428 0.2396 0.2365 0.2334 0.2302 0.2271 0.2247 0.2208 0.2177 0.2146 0.2114 0.2091 0.2099 0.2122 0.2153 0.2169 0.2193 0.2224 0.2263 0.2294 0.2334 0.2365 0.2381 0.2388 0.2396 0.2420 0.2443 0.2459 0.2467 0.2459 0.2451 0.2459 0.2482 0.2514 0.2545 0.2569 0.2592 0.2608 0.2623 0.2616 0.2608 0.2623 0.2623 0.2631 0.2623 0.2616 0.2608 0.2584 0.2576 0.2569 0.2522 0.2498 0.2467 0.2475 0.2467 0.2451 0.2412 0.2381 0.2341 0.2294 0.2247 0.2208 0.2200 0.2216 0.2240 0.2287 0.2326 0.2349 0.2341 0.2334 0.2334 0.2310 0.2271 0.2247 0.2240 0.2240 0.2247 0.2255 0.2255 0.2255 0.2263
0.1378 0.1378 0.1378 0.1378 0.1378 0.1378 0.1378 0.1378 0.1378 0.1370 0.1370 0.1378 0.1386 0.1386 0.1386 0.1386 0.1386 0.1386 0.1378 0.1378 0.1378 0.1378 0.1378 0.1378 0.1378 0.1386 0.1394 0.1402 0.1402 0.1402 0.1394 0.1386 0.1402 0.1425 0.1457 0.1472 0.1496 0.1527 0.1558 0.1590 0.1597 0.1605 0.1613 0.1629 0.1637 0.1644 0.1668 0.1707 0.1723 0.1746 0.1809 0.1856 0.1864 0.1872 0.1864 0.1872 0.1887 0.1919 0.1950 0.1989 0.2013 0.2036 0.2067 0.2075 0.2052 0.2020 0.1997 0.1997 0.2005 0.2005 0.1997 0.2005 0.2020 0.2044 0.2067 0.2114 0.2153 0.2193 0.2232 0.2263 0.2271 0.2255 0.2224 0.2185 0.2146 0.2130 0.2122 0.2106 0.2099 0.2091 0.2083 0.2106 0.2146 0.2200 0.2232 0.2255 0.2271 0.2294 0.2318 0.2341 0.2349 0.2349 0.2326 0.2302 0.2287 0.2263 0.2240 0.2224 0.2224 0.2232 0.2247 0.2271 0.2310 0.2349 0.2357 0.2365 0.2373 0.2381 0.2365 0.2349 0.2349 0.2341 0.2326 0.2318 0.2318 0.2318 0.2287 0.2240 0.2216 0.2200 0.2193 0.2185 0.2185 0.2208 0.2240 0.2279 0.2326 0.2365 0.2396 0.2428 0.2459 0.2475 0.2490 0.2490 0.2475 0.2482 0.2482 0.2475 0.2459 0.2435 0.2412 0.2428 0.2443 0.2467 0.2498 0.2514 0.2529 0.2514 0.2490 0.2459 0.2428 0.2381 0.2357 0.2318 0.2279 0.2263 0.2247 0.2224 0.2193 0.2161 0.2130 0.2099 0.2099 0.2114 0.2138 0.2161 0.2185 0.2232 0.2287 0.2326 0.2357 0.2381 0.2388 0.2388 0.2396 0.2404 0.2420 0.2428 0.2428 0.2435 0.2435 0.2443 0.2475 0.2506 0.2537 0.2561 0.2584 0.2600 0.2592 0.2569 0.2561 0.2569 0.2576 0.2561 0.2569 0.2561 0.2553 0.2545 0.2537 0.2514 0.2475 0.2428 0.2420 0.2420 0.2412 0.2396 0.2373 0.2349 0.2326 0.2279 0.2224 0.2200 0.2200 0.2232 0.2271 0.2310 0.2334 0.2341 0.2334 0.2334 0.2310 0.2287 0.2247 0.2216 0.2216 0.2224 0.2240 0.2247 0.2255 0.2263 0.2271
0.1386 0.1386 0.1378 0.1378 0.1363 0.1370 0.1378 0.1370 0.1370 0.1370 0.1378 0.1378 0.1378 0.1386 0.1386 0.1386 0.1386 0.1386 0.1378 0.1378 0.1378 0.1378 0.1378 0.1378 0.1386 0.1394 0.1402 0.1402 0.1410 0.1410 0.1402 0.1394 0.1394 0.1402 0.1425 0.1449 0.1464 0.1488 0.1519 0.1558 0.1574 0.1590 0.1597 0.1621 0.1637 0.1652 0.1684 0.1715 0.1723 0.1738 0.1778 0.1817 0.1825 0.1832 0.1840 0.1864 0.1887 0.1926 0.1958 0.1981 0.2005 0.2020 0.2020 0.2013 0.1997 0.1973 0.1966 0.1973 0.1981 0.1981 0.1981 0.1989 0.1997 0.2013 0.2044 0.2099 0.2138 0.2185 0.2216 0.2232 0.2247 0.2224 0.2200 0.2161 0.2130 0.2099 0.2083 0.2075 0.2060 0.2060 0.2083 0.2114 0.2169 0.2224 0.2247 0.2263 0.2287 0.2310 0.2326 0.2341 0.2334 0.2310 0.2287 0.2263 0.2232 0.2216 0.2208 0.2200 0.2200 0.2208 0.2224 0.2255 0.2287 0.2287 0.2302 0.2310 0.2318 0.2326 0.2318 0.2302 0.2302 0.2287 0.2271 0.2271 0.2271 0.2271 0.2247 0.2216 0.2185 0.2169 0.2146 0.2130 0.2138 0.2177 0.2216 0.2263 0.2302 0.2349 0.2381 0.2396 0.2412 0.2428 0.2435 0.2435 0.2435 0.2435 0.2443 0.2435 0.2412 0.2388 0.2373 0.2381 0.2404 0.2443 0.2482 0.2506 0.2522 0.2522 0.2498 0.2459 0.2428 0.2388 0.2341 0.2294 0.2279 0.2255 0.2240 0.2216 0.2193 0.2161 0.2130 0.2099 0.2083 0.2083 0.2106 0.2146 0.2185 0.2232 0.2287 0.2326 0.2349 0.2373 0.2381 0.2388 0.2381 0.2388 0.2388 0.2388 0.2404 0.2412 0.2435 0.2459 0.2482 0.2514 0.2537 0.2553 0.2561 0.2576 0.2561 0.2537 0.2522 0.2522 0.2514 0.2498 0.2498 0.2490 0.2506 0.2522 0.2506 0.2475 0.2428 0.2388 0.2381 0.2373 0.2365 0.2357 0.2341 0.2326 0.2294 0.2255 0.2232 0.2208 0.2224 0.2247 0.2287 0.2326 0.2326 0.2326 0.2326 0.2318 0.2302 0.2263 0.2232 0.2200 0.2200 0.2224 0.2240 0.2247 0.2271 0.2287 0.2287
0.1386 0.1378 0.1378 0.1370 0.1363 0.1363 0.1370 0.1370 0.1370 0.1370 0.1378 0.1386 0.1378 0.1378 0.1378 0.1378 0.1378 0.1378 0.1378 0.1386 0.1386 0.1378 0.1378 0.1378 0.1386 0.1386 0.1394 0.1402 0.1410 0.1417 0.1410 0.1402 0.1394 0.1378 0.1386 0.1402 0.1441 0.1464 0.1488 0.1527 0.1574 0.1590 0.1605 0.1637 0.1652 0.1668 0.1691 0.1715 0.1738 0.1754 0.1785 0.1793 0.1801 0.1809 0.1825 0.1856 0.1895 0.1926 0.1958 0.1981 0.2013 0.2020 0.2005 0.1973 0.1950 0.1934 0.1942 0.1950 0.1958 0.1958 0.1958 0.1966 0.1973 0.1989 0.2036 0.2083 0.2122 0.2161 0.2193 0.2216 0.2224 0.2208 0.2193 0.2153 0.2114 0.2083 0.2060 0.2036 0.2028 0.2036 0.2060 0.2106 0.2153 0.2185 0.2216 0.2232 0.2255 0.2279 0.2310 0.2310 0.2294 0.2279 0.2263 0.2224 0.2193 0.2177 0.2177 0.2169 0.2177 0.2185 0.2216 0.2240 0.2247 0.2240 0.2240 0.2263 0.2271 0.2271 0.2263 0.2255 0.2255 0.2240 0.2224 0.2208 0.2216 0.2216 0.2200 0.2177 0.2153 0.2130 0.2114 0.2099 0.2114 0.2146 0.2200 0.2247 0.2294 0.2326 0.2349 0.2357 0.2373 0.2396 0.2412 0.2412 0.2412 0.2420 0.2412 0.2396 0.2381 0.2365 0.2357 0.2357 0.2381 0.2404 0.2435 0.2482 0.2498 0.2514 0.2490 0.2459 0.2428 0.2396 0.2357 0.2318 0.2279 0.2247 0.2224 0.2208 0.2193 0.2161 0.2122 0.2083 0.2060 0.2060 0.2083 0.2122 0.2169 0.2224 0.2279 0.2326 0.2341 0.2357 0.2365 0.2357 0.2357 0.2365 0.2373 0.2381 0.2388 0.2420 0.2443 0.2467 0.2490 0.2514 0.2529 0.2537 0.2545 0.2545 0.2529 0.2490 0.2475 0.2467 0.2467 0.2451 0.2451 0.2451 0.2467 0.2482 0.2467 0.2443 0.2404 0.2365 0.2341 0.2326 0.2318 0.2318 0.2302 0.2279 0.2271 0.2255 0.2224 0.2208 0.2208 0.2224 0.2255 0.2263 0.2279 0.2287 0.2302 0.2294 0.2263 0.2240 0.2216 0.2200 0.2208 0.2232 0.2247 0.2263 0.2279 0.2294 0.2310
0.1378 0.1378 0.1378 0.1378 0.1378 0.1370 0.1370 0.1370 0.1370 0.1378 0.1386 0.1386 0.1386 0.1378 0.1386 0.1386 0.1386 0.1386 0.1386 0.1386 0.1386 0.1378 0.1378 0.1386 0.1386 0.1394 0.1394 0.1402 0.1402 0.1410 0.1410 0.1402 0.1386 0.1378 0.1370 0.1386 0.1417 0.1449 0.1480 0.1511 0.1543 0.1574 0.1613 0.1637 0.1652 0.1660 0.1668 0.1699 0.1738 0.1762 0.1778 0.1785 0.1793 0.1793 0.1817 0.1848 0.1879 0.1911 0.1926 0.1950 0.1966 0.1989 0.1981 0.1950 0.1926 0.1903 0.1903 0.1919 0.1926 0.1926 0.1934 0.1942 0.1950 0.1989 0.2028 0.2067 0.2106 0.2138 0.2177 0.2200 0.2208 0.2185 0.2161 0.2130 0.2106 0.2075 0.2036 0.1997 0.1989 0.1997 0.2036 0.2067 0.2106 0.2138 0.2153 0.2177 0.2216 0.2247 0.2271 0.2271 0.2263 0.2247 0.2224 0.2193 0.2161 0.2146 0.2138 0.2130 0.2138 0.2153 0.2185 0.2208 0.2216 0.2208 0.2208 0.2216 0.2216 0.2224 0.2232 0.2224 0.2224 0.2200 0.2185 0.2169 0.2169 0.2161 0.2153 0.2130 0.2114 0.2099 0.2091 0.2083 0.2106 0.2153 0.2185 0.2224 0.2255 0.2294 0.2310 0.2326 0.2334 0.2349 0.2357 0.2365 0.2381 0.2373 0.2365 0.2365 0.2349 0.2341 0.2334 0.2341 0.2349 0.2365 0.2404 0.2443 0.2482 0.2498 0.2490 0.2451 0.2428 0.2388 0.2365 0.2334 0.2302 0.2255 0.2232 0.2208 0.2193 0.2169 0.2130 0.2083 0.2052 0.2052 0.2075 0.2114 0.2146 0.2216 0.2271 0.2302 0.2326 0.2341 0.2341 0.2334 0.2334 0.2349 0.2365 0.2381 0.2404 0.2428 0.2443 0.2459 0.2475 0.2490 0.2506 0.2522 0.2522 0.2514 0.2490 0.2459 0.2443 0.2428 0.2412 0.2420 0.2435 0.2443 0.2443 0.2435 0.2443 0.2420 0.2396 0.2357 0.2334 0.2294 0.2255 0.2255 0.2255 0.2247 0.2263 0.2255 0.2216 0.2185 0.2169 0.2169 0.2177 0.2177 0.2193 0.2224 0.2247 0.2240 0.2224 0.2216 0.2208 0.2208 0.2224 0.2240 0.2247 0.2255 0.2271 0.2287 0.2310
0.1378 0.1378 0.1378 0.1378 0.1386 0.1378 0.1378 0.1370 0.1370 0.1378 0.1386 0.1386 0.1378 0.1386 0.1394 0.1394 0.1394 0.1394 0.1394 0.1386 0.1378 0.1386 0.1394 0.1402 0.1402 0.1402 0.1402 0.1402 0.1402 0.1402 0.1410 0.1410 0.1402 0.1378 0.1378 0.1378 0.1402 0.1433 0.1464 0.1488 0.1511 0.1551 0.1582 0.1621 0.1637 0.1629 0.1644 0.1676 0.1715 0.1738 0.1754 0.1762 0.1770 0.1778 0.1785 0.1809 0.1840 0.1864 0.1887 0.1903 0.1926 0.1942 0.1942 0.1926 0.1895 0.1872 0.1864 0.1872 0.1887 0.1895 0.1903 0.1911 0.1934 0.1973 0.2028 0.2067 0.2091 0.2130 0.2169 0.2185 0.2185 0.2153 0.2130 0.2106 0.2075 0.2044 0.1997 0.1973 0.1966 0.1981 0.2005 0.2036 0.2067 0.2091 0.2114 0.2146 0.2185 0.2232 0.2240 0.2232 0.2224 0.2193 0.2177 0.2153 0.2130 0.2114 0.2099 0.2091 0.2099 0.2114 0.2138 0.2161 0.2169 0.2177 0.2177 0.2177 0.2185 0.2200 0.2193 0.2185 0.2185 0.2169 0.2138 0.2130 0.2122 0.2114 0.2106 0.2091 0.2075 0.2060 0.2052 0.2067 0.2099 0.2138 0.2169 0.2185 0.2208 0.2232 0.2263 0.2271 0.2287 0.2294 0.2302 0.2318 0.2326 0.2326 0.2341 0.2341 0.2326 0.2318 0.2302 0.2302 0.2326 0.2357 0.2388 0.2420 0.2451 0.2467 0.2459 0.2435 0.2404 0.2381 0.2349 0.2334 0.2294 0.2263 0.2232 0.2200 0.2177 0.2161 0.2114 0.2067 0.2044 0.2052 0.2067 0.2099 0.2138 0.2185 0.2247 0.2287 0.2310 0.2318 0.2318 0.2318 0.2334 0.2341 0.2357 0.2388 0.2404 0.2420 0.2435 0.2451 0.2459 0.2467 0.2475 0.2482 0.2482 0.2482 0.2459 0.2428 0.2404 0.2381 0.2373 0.2381 0.2404 0.2420 0.2420 0.2420 0.2420 0.2412 0.2396 0.2365 0.2326 0.2271 0.2224 0.2208 0.2208 0.2232 0.2240 0.2240 0.2193 0.2153 0.2122 0.2106 0.2114 0.2122 0.2122 0.2130 0.2153 0.2169 0.2185 0.2185 0.2200 0.2216 0.2232 0.2247 0.2263 0.2271 0.2279 0.2279 0.2302
0.1410 0.1402 0.1394 0.1386 0.1394 0.1386 0.1370 0.1370 0.1378 0.1394 0.1402 0.1402 0.1394 0.1394 0.1394 0.1394 0.1394 0.1394 0.1394 0.1394 0.1394 0.1402 0.1410 0.1417 0.1417 0.1417 0.1410 0.1410 0.1402 0.1410 0.1410 0.1417 0.1410 0.1394 0.1386 0.1378 0.1394 0.1410 0.1433 0.1457 0.1488 0.1511 0.1551 0.1574 0.1597 0.1605 0.1621 0.1652 0.1684 0.1707 0.1715 0.1723 0.1738 0.1746 0.1754 0.1770 0.1801 0.1832 0.1856 0.1887 0.1895 0.1895 0.1887 0.1872 0.1848 0.1832 0.1825 0.1840 0.1840 0.1848 0.1864 0.1887 0.1919 0.1958 0.2013 0.2060 0.2091 0.2122 0.2153 0.2185 0.2177 0.2161 0.2122 0.2083 0.2044 0.2013 0.1981 0.1950 0.1942 0.1958 0.1981 0.2013 0.2044 0.2091 0.2122 0.2153 0.2193 0.2208 0.2208 0.2193 0.2169 0.2153 0.2138 0.2114 0.2099 0.2099 0.2067 0.2067 0.2075 0.2083 0.2099 0.2114 0.2130 0.2130 0.2130 0.2138 0.2146 0.2153 0.2153 0.2153 0.2153 0.2138 0.2114 0.2099 0.2083 0.2083 0.2075 0.2060 0.2044 0.2028 0.2028 0.2036 0.2067 0.2091 0.2122 0.2146 0.2161 0.2177 0.2193 0.2216 0.2224 0.2232 0.2247 0.2279 0.2294 0.2294 0.2302 0.2302 0.2287 0.2279 0.2271 0.2294 0.2310 0.2334 0.2357 0.2373 0.2396 0.2420 0.2435 0.2420 0.2396 0.2365 0.2341 0.2318 0.2287 0.2255 0.2224 0.2185 0.2161 0.2130 0.2091 0.2044 0.2036 0.2044 0.2067 0.2099 0.2130 0.2200 0.2263 0.2294 0.2302 0.2294 0.2287 0.2302 0.2326 0.2341 0.2365 0.2381 0.2396 0.2404 0.2420 0.2443 0.2459 0.2451 0.2435 0.2428 0.2435 0.2451 0.2443 0.2396 0.2365 0.2341 0.2334 0.2341 0.2357 0.2381 0.2396 0.2404 0.2412 0.2412 0.2388 0.2365 0.2326 0.2279 0.2232 0.2177 0.2177 0.2193 0.2200 0.2185 0.2138 0.2099 0.2083 0.2075 0.2075 0.2083 0.2099 0.2106 0.2122 0.2138 0.2161 0.2177 0.2200 0.2216 0.2240 0.2255 0.2271 0.2287 0.2294 0.2302 0.2334
0.1464 0.1441 0.1433 0.1425 0.1417 0.1402 0.1394 0.1394 0.1410 0.1417 0.1417 0.1425 0.1417 0.1402 0.1394 0.1394 0.1402 0.1402 0.1402 0.1402 0.1410 0.1425 0.1433 0.1425 0.1417 0.1417 0.1417 0.1410 0.1402 0.1410 0.1417 0.1417 0.1402 0.1394 0.1394 0.1386 0.1386 0.1402 0.1417 0.1441 0.1464 0.1488 0.1511 0.1535 0.1558 0.1574 0.1605 0.1629 0.1644 0.1660 0.1676 0.1691 0.1699 0.1715 0.1723 0.1762 0.1793 0.1817 0.1856 0.1864 0.1864 0.1856 0.1848 0.1825 0.1809 0.1793 0.1793 0.1801 0.1801 0.1817 0.1840 0.1879 0.1919 0.1958 0.2013 0.2060 0.2091 0.2114 0.2146 0.2177 0.2185 0.2161 0.2130 0.2099 0.2067 0.2028 0.1989 0.1942 0.1934 0.1934 0.1958 0.1997 0.2044 0.2091 0.2122 0.2153 0.2185 0.2200 0.2185 0.2161 0.2138 0.2114 0.2106 0.2083 0.2067 0.2052 0.2036 0.2036 0.2052 0.2060 0.2060 0.2075 0.2091 0.2091 0.2091 0.2091 0.2099 0.2099 0.2099 0.2099 0.2099 0.2099 0.2091 0.2075 0.2060 0.2052 0.2044 0.2028 0.2013 0.2005 0.1997 0.2005 0.2028 0.2052 0.2067 0.2083 0.2091 0.2114 0.2138 0.2146 0.2161 0.2169 0.2185 0.2224 0.2263 0.2271 0.2279 0.2263 0.2247 0.2247 0.2255 0.2271 0.2294 0.2310 0.2326 0.2334 0.2349 0.2381 0.2396 0.2396 0.2381 0.2357 0.2341 0.2310 0.2271 0.2240 0.2208 0.2161 0.2138 0.2114 0.2067 0.2036 0.2028 0.2044 0.2067 0.2091 0.2130 0.2193 0.2263 0.2279 0.2279 0.2263 0.2263 0.2263 0.2287 0.2326 0.2357 0.2381 0.2388 0.2396 0.2404 0.2420 0.2428 0.2412 0.2404 0.2404 0.2420 0.2420 0.2404 0.2365 0.2334 0.2318 0.2318 0.2310 0.2310 0.2341 0.2357 0.2381 0.2404 0.2412 0.2396 0.2357 0.2326 0.2287 0.2224 0.2161 0.2153 0.2153 0.2146 0.2122 0.2083 0.2060 0.2060 0.2060 0.2075 0.2099 0.2114 0.2130 0.2138 0.2161 0.2177 0.2193 0.2224 0.2247 0.2255 0.2271 0.2287 0.2310 0.2334 0.2349 0.2381
0.1496 0.1472 0.1472 0.1480 0.1472 0.1457 0.1449 0.1449 0.1449 0.1449 0.1449 0.1441 0.1425 0.1425 0.1417 0.1425 0.1417 0.1417 0.1410 0.1410 0.1417 0.1425 0.1433 0.1425 0.1425 0.1417 0.1417 0.1410 0.1410 0.1410 0.1410 0.1410 0.1410 0.1402 0.1402 0.1386 0.1386 0.1394 0.1417 0.1433 0.1457 0.1472 0.1496 0.1511 0.1543 0.1574 0.1597 0.1613 0.1613 0.1621 0.1644 0.1668 0.1684 0.1707 0.1731 0.1762 0.1793 0.1832 0.1848 0.1856 0.1840 0.1832 0.1817 0.1793 0.1770 0.1762 0.1762 0.1770 0.1770 0.1793 0.1817 0.1872 0.1919 0.1966 0.2005 0.2036 0.2067 0.2083 0.2106 0.2138 0.2146 0.2146 0.2138 0.2106 0.2075 0.2036 0.1997 0.1958 0.1934 0.1926 0.1942 0.1981 0.2020 0.2060 0.2091 0.2122 0.2161 0.2177 0.2177 0.2146 0.2106 0.2083 0.2067 0.2036 0.2013 0.1997 0.1989 0.2005 0.2020 0.2028 0.2036 0.2052 0.2060 0.2075 0.2075 0.2067 0.2060 0.2052 0.2052 0.2060 0.2060 0.2060 0.2052 0.2036 0.2028 0.2028 0.2013 0.1989 0.1981 0.1973 0.1973 0.1981 0.1997 0.2013 0.2020 0.2020 0.2036 0.2075 0.2091 0.2099 0.2106 0.2106 0.2122 0.2153 0.2200 0.2232 0.2232 0.2232 0.2216 0.2224 0.2232 0.2240 0.2263 0.2279 0.2302 0.2302 0.2318 0.2341 0.2349 0.2349 0.2341 0.2349 0.2326 0.2294 0.2255 0.2224 0.2193 0.2161 0.2130 0.2091 0.2067 0.2044 0.2036 0.2044 0.2060 0.2083 0.2114 0.2177 0.2240 0.2263 0.2247 0.2240 0.2224 0.2224 0.2255 0.2294 0.2334 0.2357 0.2373 0.2381 0.2388 0.2396 0.2396 0.2381 0.2365 0.2381 0.2396 0.2396 0.2373 0.2341 0.2310 0.2287 0.2287 0.2287 0.2294 0.2310 0.2334 0.2357 0.2396 0.2404 0.2381 0.2341 0.2310 0.2271 0.2193 0.2146 0.2130 0.2114 0.2099 0.2067 0.2052 0.2044 0.2052 0.2067 0.2091 0.2130 0.2153 0.2169 0.2177 0.2200 0.2208 0.2224 0.2240 0.2271 0.2302 0.2310 0.2334 0.2349 0.2373 0.2396 0.2420
0.1511 0.1511 0.1527 0.1535 0.1535 0.1511 0.1504 0.1504 0.1511 0.1496 0.1488 0.1480 0.1464 0.1457 0.1464 0.1457 0.1441 0.1425 0.1425 0.1417 0.1417 0.1425 0.1433 0.1425 0.1425 0.1417 0.1417 0.1417 0.1410 0.1410 0.1402 0.1402 0.1410 0.1410 0.1402 0.1402 0.1394 0.1402 0.1402 0.1417 0.1449 0.1464 0.1480 0.1504 0.1527 0.1551 0.1574 0.1582 0.1597 0.1605 0.1621 0.1644 0.1668 0.1699 0.1731 0.1770 0.1817 0.1840 0.1856 0.1832 0.1817 0.1809 0.1785 0.1770 0.1754 0.1731 0.1731 0.1731 0.1746 0.1762 0.1793 0.1840 0.1903 0.1942 0.1981 0.1997 0.2020 0.2044 0.2067 0.2099 0.2114 0.2122 0.2122 0.2099 0.2060 0.2028 0.1997 0.1966 0.1926 0.1911 0.1919 0.1966 0.2005 0.2036 0.2060 0.2083 0.2114 0.2138 0.2161 0.2130 0.2099 0.2067 0.2036 0.2005 0.1981 0.1958 0.1958 0.1981 0.1997 0.2005 0.2013 0.2020 0.2036 0.2052 0.2060 0.2052 0.2028 0.2020 0.2020 0.2028 0.2028 0.2028 0.2013 0.2005 0.1989 0.1981 0.1981 0.1973 0.1958 0.1958 0.1966 0.1966 0.1973 0.1981 0.1981 0.1981 0.2005 0.2028 0.2044 0.2052 0.2067 0.2067 0.2075 0.2099 0.2146 0.2177 0.2193 0.2193 0.2200 0.2200 0.2200 0.2224 0.2240 0.2255 0.2255 0.2263 0.2287 0.2302 0.2310 0.2310 0.2310 0.2302 0.2294 0.2271 0.2232 0.2208 0.2185 0.2153 0.2114 0.2083 0.2060 0.2028 0.2020 0.2028 0.2060 0.2099 0.2130 0.2193 0.2232 0.2232 0.2216 0.2208 0.2200 0.2208 0.2232 0.2263 0.2287 0.2310 0.2334 0.2349 0.2365 0.2365 0.2357 0.2349 0.2334 0.2349 0.2373 0.2365 0.2341 0.2310 0.2287 0.2271 0.2271 0.2279 0.2294 0.2310 0.2318 0.2357 0.2396 0.2388 0.2349 0.2302 0.2279 0.2232 0.2161 0.2114 0.2099 0.2075 0.2036 0.2028 0.2028 0.2044 0.2060 0.2083 0.2122 0.2161 0.2185 0.2208 0.2232 0.2255 0.2263 0.2263 0.2263 0.2294 0.2334 0.2373 0.2388 0.2404 0.2428 0.2443 0.2475
0.1590 0.1558 0.1566 0.1574 0.1558 0.1551 0.1543 0.1551 0.1543 0.1535 0.1535 0.1527 0.1511 0.1488 0.1480 0.1472 0.1457 0.1449 0.1433 0.1433 0.1425 0.1433 0.1433 0.1433 0.1425 0.1417 0.1417 0.1425 0.1417 0.1410 0.1402 0.1402 0.1410 0.1417 0.1417 0.1410 0.1410 0.1402 0.1410 0.1417 0.1433 0.1457 0.1464 0.1480 0.1496 0.1527 0.1543 0.1558 0.1574 0.1597 0.1613 0.1637 0.1668 0.1699 0.1738 0.1785 0.1817 0.1825 0.1809 0.1793 0.1785 0.1770 0.1754 0.1738 0.1723 0.1699 0.1691 0.1691 0.1707 0.1738 0.1793 0.1832 0.1879 0.1911 0.1934 0.1950 0.1981 0.2005 0.2028 0.2060 0.2083 0.2091 0.2091 0.2075 0.2060 0.2028 0.1997 0.1950 0.1911 0.1895 0.1911 0.1942 0.1981 0.2020 0.2044 0.2052 0.2075 0.2114 0.2130 0.2114 0.2083 0.2060 0.2020 0.1981 0.1950 0.1926 0.1926 0.1950 0.1966 0.1973 0.1989 0.1989 0.2013 0.2036 0.2044 0.2028 0.2013 0.1997 0.1997 0.1997 0.1997 0.1997 0.1989 0.1973 0.1966 0.1958 0.1958 0.1942 0.1934 0.1934 0.1942 0.1934 0.1950 0.1958 0.1966 0.1973 0.1981 0.1989 0.2005 0.2013 0.2028 0.2036 0.2052 0.2067 0.2106 0.2138 0.2153 0.2161 0.2177 0.2177 0.2185 0.2200 0.2224 0.2216 0.2216 0.2232 0.2247 0.2263 0.2279 0.2279 0.2279 0.2279 0.2271 0.2247 0.2216 0.2200 0.2177 0.2146 0.2114 0.2083 0.2052 0.2020 0.2013 0.2028 0.2044 0.2083 0.2114 0.2146 0.2169 0.2177 0.2177 0.2185 0.2177 0.2185 0.2208 0.2216 0.2240 0.2263 0.2287 0.2302 0.2310 0.2310 0.2302 0.2294 0.2294 0.2310 0.2318 0.2318 0.2294 0.2279 0.2271 0.2263 0.2255 0.2279 0.2302 0.2318 0.2341 0.2373 0.2388 0.2365 0.2318 0.2271 0.2224 0.2193 0.2153 0.2114 0.2075 0.2036 0.2013 0.2005 0.2020 0.2044 0.2075 0.2106 0.2138 0.2161 0.2193 0.2224 0.2255 0.2271 0.2287 0.2302 0.2326 0.2357 0.2404 0.2435 0.2451 0.2459 0.2482 0.2514 0.2537
0.1621 0.1605 0.1590 0.1574 0.1582 0.1590 0.1590 0.1582 0.1582 0.1566 0.1558 0.1543 0.1527 0.1504 0.1488 0.1472 0.1464 0.1457 0.1449 0.1441 0.1433 0.1441 0.1433 0.1433 0.1425 0.1425 0.1425 0.1425 0.1425 0.1410 0.1410 0.1410 0.1417 0.1425 0.1425 0.1410 0.1402 0.1402 0.1402 0.1417 0.1433 0.1449 0.1449 0.1457 0.1480 0.1511 0.1527 0.1535 0.1551 0.1574 0.1597 0.1629 0.1668 0.1691 0.1723 0.1754 0.1762 0.1754 0.1738 0.1731 0.1731 0.1723 0.1707 0.1691 0.1676 0.1668 0.1668 0.1668 0.1684 0.1723 0.1785 0.1825 0.1848 0.1872 0.1887 0.1926 0.1950 0.1966 0.1989 0.2013 0.2028 0.2036 0.2060 0.2075 0.2067 0.2036 0.1997 0.1950 0.1911 0.1895 0.1903 0.1926 0.1958 0.1997 0.2005 0.2013 0.2044 0.2091 0.2099 0.2091 0.2067 0.2044 0.2005 0.1966 0.1919 0.1895 0.1903 0.1926 0.1934 0.1950 0.1966 0.1973 0.1997 0.2020 0.2036 0.2020 0.1997 0.1981 0.1966 0.1958 0.1958 0.1958 0.1958 0.1950 0.1934 0.1942 0.1934 0.1926 0.1911 0.1911 0.1911 0.1919 0.1919 0.1934 0.1950 0.1950 0.1958 0.1966 0.1966 0.1973 0.1989 0.2005 0.2013 0.2036 0.2060 0.2099 0.2114 0.2130 0.2153 0.2169 0.2169 0.2185 0.2185 0.2169 0.2161 0.2177 0.2200 0.2224 0.2232 0.2240 0.2240 0.2240 0.2232 0.2216 0.2200 0.2185 0.2177 0.2146 0.2114 0.2099 0.2067 0.2036 0.2020 0.2020 0.2036 0.2044 0.2067 0.2091 0.2114 0.2130 0.2146 0.2138 0.2138 0.2146 0.2169 0.2193 0.2216 0.2240 0.2255 0.2263 0.2263 0.2255 0.2263 0.2263 0.2263 0.2263 0.2271 0.2279 0.2263 0.2247 0.2240 0.2240 0.2247 0.2271 0.2302 0.2334 0.2357 0.2373 0.2373 0.2357 0.2318 0.2271 0.2216 0.2161 0.2122 0.2075 0.2044 0.2020 0.2005 0.2013 0.2036 0.2060 0.2091 0.2122 0.2146 0.2169 0.2208 0.2240 0.2263 0.2294 0.2334 0.2365 0.2404 0.2443 0.2482 0.2506 0.2522 0.2537 0.2553 0.2576 0.2600
0.1637 0.1621 0.1597 0.1597 0.1613 0.1629 0.1629 0.1621 0.1605 0.1590 0.1574 0.1558 0.1543 0.1535 0.1511 0.1496 0.1480 0.1472 0.1464 0.1457 0.1449 0.1441 0.1441 0.1433 0.1425 0.1433 0.1433 0.1433 0.1425 0.1417 0.1417 0.1417 0.1425 0.1425 0.1417 0.1410 0.1402 0.1394 0.1402 0.1417 0.1433 0.1441 0.1441 0.1441 0.1464 0.1488 0.1504 0.1511 0.1535 0.1558 0.1590 0.1621 0.1660 0.1676 0.1691 0.1691 0.1691 0.1684 0.1668 0.1660 0.1660 0.1660 0.1652 0.1644 0.1644 0.1644 0.1652 0.1668 0.1691 0.1723 0.1754 0.1793 0.1809 0.1832 0.1856 0.1879 0.1903 0.1926 0.1958 0.1973 0.1981 0.1989 0.2020 0.2052 0.2052 0.2020 0.1981 0.1942 0.1903 0.1879 0.1887 0.1903 0.1934 0.1958 0.1973 0.1989 0.2036 0.2067 0.2075 0.2060 0.2044 0.2020 0.1997 0.1958 0.1911 0.1879 0.1887 0.1903 0.1895 0.1911 0.1926 0.1950 0.1973 0.1997 0.2005 0.1997 0.1973 0.1958 0.1934 0.1919 0.1919 0.1919 0.1919 0.1911 0.1919 0.1919 0.1919 0.1911 0.1903 0.1903 0.1903 0.1903 0.1911 0.1919 0.1926 0.1934 0.1934 0.1942 0.1942 0.1950 0.1966 0.1973 0.1989 0.2013 0.2028 0.2052 0.2075 0.2099 0.2122 0.2138 0.2138 0.2138 0.2130 0.2114 0.2114 0.2122 0.2138 0.2169 0.2185 0.2185 0.2185 0.2193 0.2200 0.2193 0.2177 0.2169 0.2153 0.2138 0.2114 0.2091 0.2067 0.2044 0.2020 0.2013 0.2013 0.2020 0.2028 0.2052 0.2075 0.2091 0.2091 0.2091 0.2091 0.2114 0.2153 0.2177 0.2193 0.2208 0.2216 0.2224 0.2224 0.2232 0.2232 0.2224 0.2232 0.2240 0.2247 0.2255 0.2247 0.2224 0.2216 0.2224 0.2240 0.2263 0.2302 0.2334 0.2365 0.2381 0.2381 0.2357 0.2318 0.2279 0.2216 0.2146 0.2083 0.2036 0.2005 0.1997 0.1997 0.2005 0.2036 0.2083 0.2099 0.2122 0.2146 0.2185 0.2232 0.2263 0.2310 0.2349 0.2388 0.2428 0.2467 0.2506 0.2529 0.2561 0.2576 0.2592 0.2616 0.2631 0.2655
0.1652 0.1637 0.1637 0.1637 0.1660 0.1660 0.1660 0.1660 0.1644 0.1629 0.1613 0.1613 0.1613 0.1597 0.1574 0.1543 0.1519 0.1496 0.1488 0.1480 0.1464 0.1457 0.1441 0.1433 0.1433 0.1433 0.1433 0.1433 0.1433 0.1433 0.1425 0.1417 0.1417 0.1417 0.1410 0.1410 0.1402 0.1394 0.1394 0.1410 0.1425 0.1433 0.1433 0.1441 0.1449 0.1464 0.1488 0.1504 0.1527 0.1551 0.1582 0.1613 0.1637 0.1644 0.1652 0.1644 0.1621 0.1597 0.1582 0.1582 0.1590 0.1597 0.1613 0.1613 0.1621 0.1613 0.1629 0.1644 0.1676 0.1699 0.1723 0.1754 0.1785 0.1801 0.1825 0.1840 0.1856 0.1879 0.1911 0.1934 0.1942 0.1950 0.1981 0.2020 0.2013 0.1997 0.1966 0.1926 0.1895 0.1872 0.1864 0.1879 0.1895 0.1919 0.1942 0.1966 0.2005 0.2036 0.2044 0.2036 0.2020 0.2013 0.1989 0.1950 0.1911 0.1887 0.1872 0.1864 0.1856 0.1864 0.1887 0.1911 0.1942 0.1958 0.1973 0.1966 0.1942 0.1926 0.1911 0.1895 0.1895 0.1887 0.1879 0.1879 0.1887 0.1895 0.1895 0.1903 0.1903 0.1895 0.1895 0.1895 0.1895 0.1903 0.1919 0.1919 0.1919 0.1919 0.1926 0.1942 0.1958 0.1966 0.1973 0.1981 0.1997 0.2020 0.2052 0.2067 0.2083 0.2091 0.2083 0.2075 0.2075 0.2060 0.2060 0.2067 0.2083 0.2106 0.2122 0.2138 0.2130 0.2146 0.2153 0.2169 0.2153 0.2146 0.2138 0.2122 0.2106 0.2091 0.2067 0.2044 0.2020 0.2005 0.2005 0.1997 0.2005 0.2013 0.2020 0.2036 0.2052 0.2052 0.2067 0.2083 0.2122 0.2146 0.2153 0.2153 0.2161 0.2177 0.2193 0.2200 0.2208 0.2200 0.2200 0.2208 0.2216 0.2224 0.2224 0.2216 0.2208 0.2224 0.2232 0.2255 0.2279 0.2326 0.2357 0.2373 0.2365 0.2357 0.2334 0.2294 0.2224 0.2153 0.2083 0.2028 0.1997 0.1981 0.1989 0.2013 0.2036 0.2075 0.2099 0.2130 0.2169 0.2216 0.2263 0.2302 0.2349 0.2396 0.2428 0.2459 0.2490 0.2522 0.2545 0.2569 0.2600 0.2623 0.2655 0.2670 0.2670
0.1668 0.1660 0.1660 0.1676 0.1684 0.1691 0.1691 0.1684 0.1668 0.1652 0.1644 0.1644 0.1644 0.1652 0.1644 0.1621 0.1574 0.1527 0.1511 0.1496 0.1488 0.1472 0.1457 0.1441 0.1441 0.1441 0.1441 0.1441 0.1441 0.1441 0.1433 0.1425 0.1417 0.1410 0.1410 0.1410 0.1410 0.1394 0.1402 0.1410 0.1425 0.1425 0.1433 0.1441 0.1449 0.1457 0.1472 0.1496 0.1527 0.1551 0.1558 0.1574 0.1590 0.1597 0.1597 0.1582 0.1551 0.1535 0.1519 0.1527 0.1543 0.1551 0.1558 0.1574 0.1574 0.1582 0.1582 0.1605 0.1629 0.1660 0.1691 0.1723 0.1754 0.1778 0.1793 0.1817 0.1840 0.1856 0.1879 0.1895 0.1903 0.1919 0.1958 0.1973 0.1989 0.1966 0.1934 0.1903 0.1872 0.1856 0.1848 0.1856 0.1864 0.1887 0.1911 0.1934 0.1958 0.1981 0.1997 0.1997 0.1997 0.1981 0.1966 0.1942 0.1911 0.1872 0.1840 0.1817 0.1809 0.1817 0.1848 0.1887 0.1911 0.1926 0.1942 0.1942 0.1926 0.1903 0.1879 0.1872 0.1872 0.1864 0.1856 0.1848 0.1848 0.1856 0.1872 0.1887 0.1895 0.1895 0.1887 0.1887 0.1895 0.1903 0.1903 0.1903 0.1911 0.1911 0.1926 0.1942 0.1950 0.1950 0.1966 0.1966 0.1973 0.1989 0.2020 0.2036 0.2036 0.2036 0.2028 0.2020 0.2020 0.2013 0.2020 0.2028 0.2036 0.2060 0.2083 0.2091 0.2091 0.2099 0.2106 0.2122 0.2130 0.2122 0.2099 0.2091 0.2075 0.2067 0.2052 0.2052 0.2036 0.2020 0.1997 0.1997 0.1997 0.2005 0.2013 0.2013 0.2020 0.2036 0.2052 0.2067 0.2091 0.2114 0.2122 0.2122 0.2130 0.2138 0.2161 0.2185 0.2185 0.2185 0.2185 0.2185 0.2185 0.2200 0.2200 0.2200 0.2200 0.2208 0.2216 0.2240 0.2263 0.2294 0.2334 0.2334 0.2334 0.2326 0.2310 0.2279 0.2216 0.2146 0.2083 0.2020 0.1989 0.1981 0.1981 0.2005 0.2044 0.2075 0.2106 0.2153 0.2200 0.2232 0.2255 0.2318 0.2365 0.2412 0.2451 0.2475 0.2498 0.2514 0.2545 0.2569 0.2600 0.2631 0.2655 0.2662 0.2670
0.1699 0.1691 0.1691 0.1691 0.1707 0.1699 0.1699 0.1691 0.1676 0.1660 0.1660 0.1676 0.1684 0.1684 0.1676 0.1660 0.1613 0.1574 0.1543 0.1527 0.1511 0.1488 0.1464 0.1449 0.1449 0.1441 0.1441 0.1441 0.1441 0.1449 0.1449 0.1433 0.1425 0.1417 0.1417 0.1417 0.1417 0.1402 0.1402 0.1410 0.1410 0.1425 0.1433 0.1441 0.1449 0.1449 0.1457 0.1480 0.1511 0.1519 0.1519 0.1527 0.1535 0.1535 0.1527 0.1511 0.1511 0.1504 0.1496 0.1504 0.1519 0.1519 0.1519 0.1535 0.1543 0.1551 0.1551 0.1566 0.1590 0.1621 0.1660 0.1691 0.1723 0.1738 0.1754 0.1778 0.1809 0.1825 0.1848 0.1856 0.1864 0.1879 0.1911 0.1942 0.1958 0.1934 0.1911 0.1879 0.1856 0.1832 0.1832 0.1832 0.1840 0.1856 0.1872 0.1895 0.1903 0.1926 0.1934 0.1942 0.1950 0.1958 0.1958 0.1942 0.1911 0.1856 0.1817 0.1785 0.1770 0.1778 0.1809 0.1856 0.1879 0.1895 0.1903 0.1903 0.1879 0.1856 0.1832 0.1832 0.1832 0.1832 0.1832 0.1840 0.1840 0.1848 0.1872 0.1903 0.1911 0.1903 0.1895 0.1895 0.1895 0.1903 0.1895 0.1895 0.1903 0.1911 0.1919 0.1919 0.1926 0.1950 0.1950 0.1958 0.1958 0.1973 0.1989 0.1997 0.1997 0.1997 0.1989 0.1989 0.1989 0.1981 0.1981 0.1989 0.1997 0.2020 0.2036 0.2036 0.2044 0.2060 0.2075 0.2091 0.2106 0.2091 0.2083 0.2060 0.2044 0.2028 0.2036 0.2044 0.2044 0.2013 0.1997 0.1997 0.1997 0.1997 0.2005 0.1997 0.2005 0.2020 0.2044 0.2052 0.2067 0.2083 0.2099 0.2106 0.2106 0.2122 0.2146 0.2153 0.2161 0.2161 0.2161 0.2161 0.2161 0.2153 0.2153 0.2153 0.2161 0.2169 0.2200 0.2224 0.2247 0.2287 0.2310 0.2310 0.2302 0.2279 0.2255 0.2224 0.2193 0.2146 0.2075 0.2013 0.1966 0.1966 0.1981 0.2005 0.2036 0.2083 0.2130 0.2177 0.2208 0.2240 0.2279 0.2326 0.2381 0.2420 0.2451 0.2475 0.2482 0.2506 0.2529 0.2561 0.2584 0.2608 0.2616 0.2623 0.2639
0.1731 0.1723 0.1715 0.1723 0.1723 0.1715 0.1699 0.1691 0.1691 0.1691 0.1684 0.1691 0.1699 0.1699 0.1691 0.1668 0.1652 0.1621 0.1590 0.1566 0.1535 0.1504 0.1472 0.1449 0.1449 0.1449 0.1449 0.1449 0.1449 0.1449 0.1449 0.1441 0.1433 0.1425 0.1425 0.1417 0.1417 0.1417 0.1410 0.1410 0.1410 0.1417 0.1425 0.1441 0.1449 0.1449 0.1449 0.1457 0.1472 0.1472 0.1472 0.1488 0.1496 0.1496 0.1488 0.1488 0.1488 0.1488 0.1488 0.1488 0.1496 0.1496 0.1496 0.1496 0.1504 0.1511 0.1527 0.1543 0.1566 0.1590 0.1621 0.1652 0.1668 0.1691 0.1707 0.1738 0.1762 0.1793 0.1809 0.1825 0.1832 0.1848 0.1872 0.1911 0.1919 0.1919 0.1903 0.1872 0.1848 0.1817 0.1809 0.1809 0.1817 0.1825 0.1832 0.1848 0.1856 0.1856 0.1872 0.1887 0.1903 0.1919 0.1926 0.1919 0.1887 0.1848 0.1817 0.1778 0.1754 0.1746 0.1778 0.1809 0.1840 0.1856 0.1848 0.1840 0.1817 0.1793 0.1785 0.1778 0.1778 0.1793 0.1809 0.1825 0.1848 0.1864 0.1879 0.1903 0.1911 0.1911 0.1911 0.1903 0.1895 0.1887 0.1879 0.1872 0.1879 0.1879 0.1879 0.1887 0.1911 0.1926 0.1942 0.1942 0.1966 0.1973 0.1973 0.1966 0.1966 0.1966 0.1966 0.1966 0.1958 0.1958 0.1966 0.1973 0.1973 0.1981 0.1989 0.1997 0.2013 0.2028 0.2044 0.2060 0.2067 0.2067 0.2052 0.2036 0.2020 0.2005 0.2013 0.2028 0.2013 0.1989 0.1981 0.1989 0.1997 0.1997 0.1997 0.1997 0.1989 0.2005 0.2020 0.2036 0.2044 0.2060 0.2075 0.2083 0.2083 0.2099 0.2114 0.2122 0.2122 0.2106 0.2114 0.2130 0.2122 0.2114 0.2106 0.2099 0.2106 0.2114 0.2130 0.2169 0.2216 0.2255 0.2271 0.2263 0.2247 0.2216 0.2193 0.2177 0.2146 0.2099 0.2044 0.1973 0.1942 0.1958 0.1981 0.2020 0.2060 0.2099 0.2138 0.2177 0.2216 0.2263 0.2302 0.2341 0.2381 0.2428 0.2451 0.2459 0.2467 0.2482 0.2514 0.2537 0.2553 0.2561 0.2569 0.2600 0.2616
