0.3406 0.3399 0.3367 0.3297 0.3187 0.3093 0.3015 0.2991 0.2999 0.3031 0.3015 0.2999 0.2960 0.2937 0.2897 0.2850 0.2764 0.2686 0.2662 0.2623 0.2608 0.2576 0.2631 0.2717 0.2874 0.2968 0.3054 0.3140 0.3265 0.3391 0.3438 0.3477 0.3532 0.3555 0.3485 0.3383 0.3234 0.3101 0.2968 0.2835 0.2709 0.2616 0.2545 0.2482 0.2435 0.2420 0.2412 0.2412 0.2412 0.2420 0.2451 0.2475 0.2459 0.2428 0.2420 0.2428 0.2435 0.2459 0.2506 0.2600 0.2670 0.2702 0.2678 0.2670 0.2686 0.2772 0.2866 0.2937 0.2991 0.3031 0.3062 0.3070 0.3062 0.3062 0.3062 0.3070 0.3085 0.3132 0.3203 0.3273 0.3336 0.3391 0.3438 0.3493 0.3563 0.3618 0.3641 0.3688 0.3751 0.3782 0.3790 0.3798 0.3837 0.3876 0.3915 0.3955 0.3986 0.4033 0.4119 0.4197 0.4260 0.4283 0.4268 0.4236 0.4205 0.4190 0.4182 0.4182 0.4197 0.4229 0.4268 0.4260 0.4205 0.4166 0.4150 0.4166 0.4252 0.4307 0.4315 0.4252 0.4182 0.4127 0.4049 0.4017 0.4056 0.4135 0.4244 0.4362 0.4464 0.4526 0.4597 0.4691 0.4761 0.4745 0.4691 0.4612 0.4503 0.4432 0.4362 0.4299 0.4260 0.4244 0.4252 0.4299 0.4354 0.4385 0.4377 0.4330 0.4291 0.4213 0.4111 0.4025 0.3970 0.3955 0.4002 0.4049 0.4096 0.4025 0.3939 0.3829 0.3751 0.3774 0.3829 0.3931 0.3986 0.4002 0.4025 0.4041 0.4056 0.4080 0.4111 0.4088 0.4080 0.4041 0.3978 0.3994 0.4033 0.4072 0.4072 0.4119 0.4166 0.4190 0.4197 0.4205 0.4190 0.4197 0.4213 0.4260 0.4299 0.4330 0.4354 0.4377 0.4401 0.4448 0.4511 0.4573 0.4589 0.4581 0.4589 0.4612 0.4659 0.4738 0.4800 0.4863 0.4941 0.4996 0.5043 0.5043 0.5035 0.5020 0.5012 0.5051 0.5129 0.5200 0.5247 0.5270 0.5270 0.5262 0.5215 0.5192 0.5200 0.5239 0.5294 0.5341 0.5411 0.5513 0.5583 0.5638 0.5654 0.5670 0.5685 0.5701 0.5709 0.5709 0.5756 0.5818 0.5857 0.5865 0.5889 0.5944 0.6006
0.3469 0.3446 0.3406 0.3328 0.3226 0.3132 0.3093 0.3078 0.3101 0.3132 0.3164 0.3171 0.3132 0.3093 0.3062 0.2991 0.2905 0.2843 0.2803 0.2749 0.2662 0.2623 0.2600 0.2662 0.2764 0.2858 0.2929 0.3023 0.3125 0.3226 0.3305 0.3359 0.3422 0.3453 0.3453 0.3367 0.3226 0.3085 0.2968 0.2850 0.2741 0.2655 0.2592 0.2522 0.2475 0.2451 0.2443 0.2420 0.2404 0.2404 0.2412 0.2412 0.2404 0.2404 0.2412 0.2428 0.2443 0.2459 0.2482 0.2529 0.2584 0.2608 0.2616 0.2639 0.2702 0.2772 0.2819 0.2835 0.2874 0.2913 0.2944 0.2944 0.2952 0.2960 0.2999 0.3038 0.3085 0.3171 0.3258 0.3305 0.3352 0.3399 0.3414 0.3469 0.3524 0.3555 0.3587 0.3634 0.3688 0.3727 0.3751 0.3798 0.3853 0.3900 0.3955 0.4009 0.4049 0.4072 0.4111 0.4182 0.4213 0.4236 0.4244 0.4213 0.4166 0.4127 0.4103 0.4111 0.4135 0.4174 0.4190 0.4190 0.4143 0.4096 0.4064 0.4111 0.4174 0.4236 0.4221 0.4166 0.4103 0.4017 0.3955 0.3939 0.3986 0.4096 0.4236 0.4354 0.4464 0.4534 0.4628 0.4714 0.4745 0.4738 0.4699 0.4597 0.4511 0.4424 0.4323 0.4236 0.4174 0.4158 0.4166 0.4213 0.4268 0.4299 0.4283 0.4244 0.4205 0.4135 0.4025 0.3939 0.3884 0.3900 0.3931 0.3978 0.4025 0.4009 0.3931 0.3821 0.3735 0.3688 0.3720 0.3798 0.3837 0.3868 0.3900 0.3915 0.3908 0.3900 0.3923 0.3970 0.3970 0.3908 0.3892 0.3908 0.3962 0.3978 0.3986 0.4033 0.4064 0.4088 0.4119 0.4119 0.4103 0.4072 0.4088 0.4135 0.4197 0.4221 0.4252 0.4291 0.4330 0.4377 0.4448 0.4471 0.4495 0.4518 0.4542 0.4565 0.4628 0.4706 0.4761 0.4800 0.4847 0.4902 0.4926 0.4926 0.4926 0.4918 0.4926 0.4949 0.5027 0.5106 0.5153 0.5129 0.5114 0.5106 0.5114 0.5137 0.5129 0.5121 0.5168 0.5223 0.5286 0.5333 0.5435 0.5513 0.5552 0.5568 0.5583 0.5599 0.5615 0.5623 0.5646 0.5701 0.5748 0.5787 0.5826 0.5904 0.5975
0.3540 0.3493 0.3438 0.3367 0.3281 0.3218 0.3179 0.3171 0.3187 0.3226 0.3289 0.3312 0.3305 0.3273 0.3226 0.3140 0.3023 0.2960 0.2897 0.2803 0.2733 0.2678 0.2647 0.2670 0.2709 0.2788 0.2843 0.2913 0.2968 0.3070 0.3164 0.3226 0.3281 0.3344 0.3375 0.3305 0.3211 0.3093 0.2999 0.2913 0.2819 0.2725 0.2639 0.2584 0.2537 0.2514 0.2482 0.2459 0.2428 0.2435 0.2443 0.2435 0.2435 0.2443 0.2451 0.2475 0.2482 0.2475 0.2459 0.2475 0.2498 0.2537 0.2576 0.2631 0.2702 0.2756 0.2733 0.2725 0.2733 0.2756 0.2772 0.2788 0.2811 0.2866 0.2929 0.2991 0.3062 0.3148 0.3258 0.3305 0.3336 0.3375 0.3399 0.3430 0.3485 0.3516 0.3540 0.3594 0.3634 0.3681 0.3712 0.3774 0.3845 0.3892 0.3947 0.4002 0.4017 0.4049 0.4088 0.4119 0.4150 0.4182 0.4197 0.4166 0.4103 0.4056 0.4041 0.4049 0.4088 0.4127 0.4143 0.4119 0.4080 0.4009 0.3994 0.4025 0.4103 0.4127 0.4103 0.4049 0.3970 0.3900 0.3868 0.3884 0.3939 0.4056 0.4205 0.4338 0.4424 0.4503 0.4597 0.4636 0.4683 0.4714 0.4667 0.4597 0.4518 0.4424 0.4323 0.4213 0.4135 0.4088 0.4088 0.4119 0.4158 0.4213 0.4213 0.4190 0.4143 0.4025 0.3915 0.3821 0.3782 0.3782 0.3814 0.3861 0.3900 0.3923 0.3853 0.3767 0.3673 0.3610 0.3618 0.3681 0.3720 0.3751 0.3767 0.3790 0.3782 0.3759 0.3798 0.3837 0.3837 0.3821 0.3798 0.3790 0.3814 0.3853 0.3900 0.3939 0.3978 0.3994 0.4017 0.4041 0.4017 0.4002 0.4025 0.4072 0.4103 0.4119 0.4143 0.4166 0.4221 0.4315 0.4346 0.4362 0.4409 0.4456 0.4487 0.4534 0.4605 0.4675 0.4691 0.4683 0.4706 0.4738 0.4785 0.4832 0.4808 0.4800 0.4816 0.4855 0.4926 0.4996 0.5012 0.5020 0.4996 0.4996 0.5020 0.5043 0.5035 0.5035 0.5074 0.5145 0.5200 0.5223 0.5270 0.5333 0.5411 0.5450 0.5466 0.5489 0.5489 0.5497 0.5544 0.5591 0.5654 0.5717 0.5779 0.5850 0.5912
0.3594 0.3532 0.3469 0.3399 0.3336 0.3273 0.3250 0.3250 0.3250 0.3297 0.3344 0.3383 0.3399 0.3399 0.3375 0.3250 0.3125 0.3023 0.2929 0.2835 0.2749 0.2709 0.2662 0.2623 0.2662 0.2717 0.2764 0.2819 0.2882 0.2968 0.3054 0.3125 0.3187 0.3226 0.3242 0.3234 0.3211 0.3148 0.3078 0.2984 0.2897 0.2811 0.2733 0.2662 0.2616 0.2576 0.2537 0.2506 0.2522 0.2537 0.2537 0.2522 0.2522 0.2561 0.2576 0.2561 0.2529 0.2498 0.2475 0.2467 0.2482 0.2506 0.2545 0.2623 0.2694 0.2686 0.2670 0.2655 0.2647 0.2639 0.2639 0.2686 0.2725 0.2772 0.2858 0.2960 0.3046 0.3156 0.3211 0.3242 0.3281 0.3328 0.3359 0.3414 0.3453 0.3485 0.3500 0.3524 0.3563 0.3626 0.3688 0.3743 0.3790 0.3845 0.3908 0.3931 0.3947 0.3955 0.3994 0.4025 0.4049 0.4080 0.4096 0.4088 0.4049 0.3994 0.3970 0.3994 0.4033 0.4056 0.4064 0.4064 0.4009 0.3955 0.3923 0.3923 0.3986 0.4056 0.4025 0.3955 0.3876 0.3798 0.3790 0.3814 0.3908 0.4049 0.4197 0.4299 0.4393 0.4487 0.4534 0.4573 0.4612 0.4636 0.4612 0.4558 0.4456 0.4370 0.4260 0.4182 0.4103 0.4041 0.4056 0.4080 0.4111 0.4135 0.4135 0.4119 0.4041 0.3955 0.3845 0.3751 0.3688 0.3657 0.3688 0.3720 0.3759 0.3759 0.3727 0.3681 0.3610 0.3579 0.3602 0.3618 0.3641 0.3649 0.3665 0.3681 0.3657 0.3673 0.3720 0.3759 0.3759 0.3751 0.3759 0.3751 0.3743 0.3782 0.3829 0.3861 0.3900 0.3915 0.3931 0.3955 0.3970 0.3970 0.4002 0.4017 0.4017 0.4017 0.4049 0.4072 0.4103 0.4158 0.4236 0.4268 0.4315 0.4362 0.4385 0.4424 0.4511 0.4565 0.4581 0.4558 0.4573 0.4605 0.4652 0.4683 0.4706 0.4722 0.4761 0.4800 0.4839 0.4832 0.4847 0.4871 0.4871 0.4894 0.4910 0.4902 0.4902 0.4949 0.5004 0.5067 0.5106 0.5153 0.5192 0.5239 0.5294 0.5348 0.5364 0.5380 0.5411 0.5458 0.5513 0.5568 0.5623 0.5685 0.5756 0.5818 0.5873
0.3641 0.3571 0.3500 0.3438 0.3375 0.3336 0.3305 0.3297 0.3305 0.3336 0.3375 0.3406 0.3430 0.3446 0.3406 0.3320 0.3179 0.3023 0.2913 0.2811 0.2756 0.2702 0.2647 0.2616 0.2608 0.2623 0.2655 0.2702 0.2756 0.2850 0.2921 0.2968 0.3038 0.3109 0.3132 0.3203 0.3218 0.3211 0.3132 0.3038 0.2952 0.2890 0.2811 0.2741 0.2694 0.2639 0.2608 0.2616 0.2623 0.2631 0.2631 0.2631 0.2662 0.2678 0.2662 0.2608 0.2561 0.2514 0.2490 0.2490 0.2490 0.2482 0.2529 0.2584 0.2623 0.2623 0.2600 0.2576 0.2561 0.2537 0.2584 0.2647 0.2694 0.2749 0.2827 0.2913 0.3007 0.3117 0.3187 0.3203 0.3242 0.3289 0.3344 0.3383 0.3422 0.3430 0.3453 0.3477 0.3540 0.3602 0.3657 0.3696 0.3743 0.3774 0.3806 0.3829 0.3829 0.3845 0.3884 0.3923 0.3939 0.3955 0.3978 0.4009 0.4002 0.3947 0.3931 0.3931 0.3962 0.3978 0.3986 0.3986 0.3947 0.3900 0.3829 0.3837 0.3908 0.3970 0.3931 0.3861 0.3767 0.3720 0.3735 0.3806 0.3884 0.3994 0.4143 0.4268 0.4354 0.4424 0.4479 0.4518 0.4534 0.4526 0.4495 0.4440 0.4354 0.4268 0.4205 0.4143 0.4056 0.4017 0.4017 0.4033 0.4049 0.4049 0.4033 0.3994 0.3931 0.3853 0.3767 0.3688 0.3626 0.3594 0.3594 0.3626 0.3634 0.3634 0.3626 0.3587 0.3555 0.3547 0.3579 0.3602 0.3610 0.3626 0.3657 0.3688 0.3712 0.3743 0.3774 0.3774 0.3767 0.3774 0.3767 0.3767 0.3790 0.3829 0.3876 0.3884 0.3876 0.3876 0.3876 0.3900 0.3931 0.3986 0.4049 0.4088 0.4080 0.4088 0.4119 0.4119 0.4119 0.4150 0.4182 0.4197 0.4205 0.4236 0.4283 0.4338 0.4401 0.4440 0.4417 0.4456 0.4487 0.4511 0.4526 0.4565 0.4597 0.4628 0.4667 0.4730 0.4745 0.4730 0.4722 0.4753 0.4785 0.4808 0.4832 0.4847 0.4871 0.4926 0.4980 0.5051 0.5098 0.5137 0.5176 0.5239 0.5294 0.5317 0.5348 0.5380 0.5403 0.5474 0.5544 0.5607 0.5670 0.5732 0.5810 0.5865 0.5912
0.3657 0.3594 0.3532 0.3453 0.3406 0.3375 0.3359 0.3375 0.3391 0.3406 0.3422 0.3446 0.3469 0.3446 0.3383 0.3289 0.3171 0.3062 0.2937 0.2843 0.2788 0.2733 0.2678 0.2623 0.2600 0.2576 0.2584 0.2600 0.2647 0.2709 0.2796 0.2850 0.2913 0.2984 0.3054 0.3140 0.3211 0.3218 0.3156 0.3070 0.3007 0.2944 0.2890 0.2850 0.2803 0.2764 0.2741 0.2725 0.2733 0.2725 0.2717 0.2725 0.2749 0.2756 0.2733 0.2686 0.2616 0.2553 0.2537 0.2529 0.2522 0.2514 0.2522 0.2529 0.2553 0.2553 0.2537 0.2522 0.2498 0.2514 0.2545 0.2576 0.2647 0.2709 0.2749 0.2843 0.2952 0.3070 0.3132 0.3179 0.3211 0.3273 0.3320 0.3344 0.3375 0.3391 0.3399 0.3453 0.3524 0.3579 0.3626 0.3657 0.3665 0.3673 0.3681 0.3712 0.3720 0.3735 0.3774 0.3814 0.3853 0.3900 0.3931 0.3962 0.3947 0.3900 0.3853 0.3861 0.3876 0.3884 0.3876 0.3868 0.3845 0.3774 0.3735 0.3751 0.3837 0.3853 0.3821 0.3751 0.3688 0.3657 0.3673 0.3727 0.3806 0.3947 0.4088 0.4213 0.4268 0.4330 0.4401 0.4432 0.4456 0.4440 0.4409 0.4354 0.4291 0.4213 0.4143 0.4080 0.4017 0.3978 0.3970 0.3962 0.3947 0.3931 0.3908 0.3868 0.3806 0.3727 0.3649 0.3594 0.3555 0.3524 0.3532 0.3547 0.3571 0.3571 0.3579 0.3563 0.3524 0.3563 0.3626 0.3673 0.3688 0.3696 0.3727 0.3782 0.3845 0.3876 0.3868 0.3853 0.3876 0.3876 0.3876 0.3884 0.3900 0.3947 0.3986 0.3970 0.3970 0.3970 0.3978 0.4017 0.4041 0.4096 0.4166 0.4190 0.4213 0.4236 0.4260 0.4244 0.4197 0.4197 0.4197 0.4197 0.4197 0.4213 0.4244 0.4291 0.4330 0.4338 0.4346 0.4377 0.4409 0.4417 0.4424 0.4471 0.4511 0.4542 0.4573 0.4612 0.4636 0.4652 0.4683 0.4706 0.4745 0.4800 0.4855 0.4926 0.4973 0.5020 0.5067 0.5106 0.5137 0.5176 0.5223 0.5286 0.5325 0.5364 0.5411 0.5450 0.5482 0.5529 0.5638 0.5732 0.5795 0.5850 0.5904 0.5944 0.5975
0.3673 0.3602 0.3547 0.3485 0.3446 0.3422 0.3446 0.3477 0.3493 0.3493 0.3516 0.3524 0.3500 0.3446 0.3375 0.3281 0.3187 0.3093 0.3007 0.2944 0.2921 0.2835 0.2756 0.2709 0.2647 0.2608 0.2584 0.2576 0.2600 0.2647 0.2725 0.2796 0.2850 0.2929 0.3023 0.3117 0.3187 0.3211 0.3171 0.3117 0.3062 0.3015 0.2968 0.2937 0.2905 0.2874 0.2843 0.2827 0.2803 0.2788 0.2788 0.2796 0.2803 0.2811 0.2803 0.2764 0.2694 0.2655 0.2639 0.2639 0.2616 0.2584 0.2545 0.2522 0.2514 0.2522 0.2537 0.2553 0.2561 0.2553 0.2529 0.2553 0.2592 0.2647 0.2709 0.2796 0.2897 0.2976 0.3054 0.3117 0.3195 0.3250 0.3297 0.3312 0.3328 0.3336 0.3359 0.3414 0.3477 0.3532 0.3579 0.3587 0.3579 0.3587 0.3602 0.3610 0.3618 0.3618 0.3649 0.3712 0.3798 0.3861 0.3915 0.3915 0.3892 0.3837 0.3790 0.3782 0.3774 0.3767 0.3759 0.3735 0.3712 0.3681 0.3657 0.3704 0.3751 0.3790 0.3735 0.3681 0.3634 0.3618 0.3634 0.3704 0.3829 0.3947 0.4049 0.4135 0.4190 0.4236 0.4299 0.4330 0.4330 0.4338 0.4330 0.4291 0.4205 0.4135 0.4096 0.4017 0.3955 0.3900 0.3884 0.3876 0.3845 0.3821 0.3782 0.3727 0.3673 0.3610 0.3540 0.3508 0.3500 0.3500 0.3500 0.3540 0.3587 0.3602 0.3634 0.3712 0.3782 0.3790 0.3806 0.3806 0.3798 0.3806 0.3806 0.3829 0.3868 0.3908 0.3915 0.3915 0.3931 0.3955 0.3970 0.3986 0.4017 0.4080 0.4111 0.4111 0.4111 0.4119 0.4143 0.4166 0.4197 0.4260 0.4291 0.4299 0.4307 0.4346 0.4362 0.4330 0.4315 0.4307 0.4307 0.4283 0.4283 0.4299 0.4307 0.4323 0.4323 0.4315 0.4323 0.4330 0.4338 0.4346 0.4354 0.4385 0.4417 0.4471 0.4511 0.4542 0.4597 0.4652 0.4706 0.4745 0.4800 0.4863 0.4949 0.4996 0.5035 0.5082 0.5114 0.5129 0.5153 0.5184 0.5223 0.5255 0.5317 0.5403 0.5466 0.5505 0.5536 0.5607 0.5724 0.5834 0.5904 0.5975 0.6045 0.6045 0.6045
0.3696 0.3618 0.3563 0.3532 0.3524 0.3532 0.3571 0.3618 0.3610 0.3610 0.3618 0.3602 0.3571 0.3500 0.3391 0.3297 0.3218 0.3148 0.3085 0.3054 0.3023 0.2968 0.2913 0.2866 0.2811 0.2741 0.2694 0.2670 0.2647 0.2647 0.2670 0.2741 0.2827 0.2913 0.3007 0.3101 0.3195 0.3226 0.3226 0.3187 0.3125 0.3085 0.3054 0.3023 0.2991 0.2968 0.2929 0.2890 0.2866 0.2858 0.2866 0.2890 0.2913 0.2913 0.2897 0.2874 0.2835 0.2788 0.2772 0.2764 0.2749 0.2702 0.2655 0.2608 0.2576 0.2592 0.2616 0.2655 0.2678 0.2639 0.2600 0.2584 0.2569 0.2616 0.2686 0.2772 0.2827 0.2897 0.2984 0.3085 0.3179 0.3226 0.3250 0.3273 0.3297 0.3312 0.3328 0.3375 0.3422 0.3461 0.3493 0.3500 0.3500 0.3500 0.3516 0.3524 0.3540 0.3555 0.3594 0.3688 0.3759 0.3814 0.3829 0.3829 0.3821 0.3759 0.3712 0.3681 0.3681 0.3665 0.3649 0.3641 0.3626 0.3610 0.3641 0.3681 0.3743 0.3712 0.3665 0.3610 0.3579 0.3571 0.3587 0.3704 0.3821 0.3947 0.4041 0.4103 0.4150 0.4182 0.4205 0.4229 0.4236 0.4229 0.4221 0.4174 0.4119 0.4088 0.4025 0.3947 0.3853 0.3821 0.3806 0.3806 0.3782 0.3743 0.3681 0.3602 0.3532 0.3485 0.3461 0.3469 0.3524 0.3563 0.3594 0.3681 0.3720 0.3759 0.3821 0.3876 0.3947 0.3978 0.3970 0.3939 0.3923 0.3892 0.3861 0.3853 0.3884 0.3931 0.3962 0.3978 0.4002 0.4049 0.4088 0.4135 0.4158 0.4174 0.4197 0.4221 0.4244 0.4260 0.4283 0.4291 0.4315 0.4354 0.4393 0.4424 0.4432 0.4424 0.4417 0.4432 0.4432 0.4432 0.4424 0.4409 0.4409 0.4409 0.4424 0.4448 0.4424 0.4385 0.4370 0.4362 0.4354 0.4330 0.4330 0.4346 0.4377 0.4417 0.4464 0.4511 0.4605 0.4714 0.4761 0.4800 0.4847 0.4910 0.4965 0.5004 0.5067 0.5114 0.5145 0.5145 0.5153 0.5184 0.5208 0.5247 0.5325 0.5411 0.5497 0.5544 0.5576 0.5662 0.5771 0.5897 0.5983 0.6077 0.6116 0.6132 0.6116
0.3751 0.3688 0.3634 0.3610 0.3602 0.3626 0.3673 0.3696 0.3712 0.3720 0.3688 0.3657 0.3618 0.3547 0.3453 0.3352 0.3281 0.3226 0.3164 0.3125 0.3109 0.3093 0.3078 0.3031 0.2960 0.2866 0.2772 0.2725 0.2670 0.2647 0.2631 0.2678 0.2749 0.2850 0.2968 0.3101 0.3195 0.3258 0.3289 0.3250 0.3195 0.3156 0.3156 0.3125 0.3093 0.3031 0.2976 0.2960 0.2952 0.2960 0.2984 0.3007 0.3031 0.3038 0.3031 0.2991 0.2952 0.2937 0.2921 0.2905 0.2866 0.2827 0.2780 0.2749 0.2725 0.2709 0.2717 0.2733 0.2749 0.2717 0.2662 0.2592 0.2561 0.2576 0.2655 0.2741 0.2811 0.2858 0.2960 0.3093 0.3164 0.3187 0.3203 0.3211 0.3234 0.3265 0.3289 0.3328 0.3375 0.3383 0.3399 0.3414 0.3430 0.3438 0.3446 0.3469 0.3500 0.3555 0.3649 0.3712 0.3759 0.3743 0.3743 0.3751 0.3743 0.3696 0.3649 0.3626 0.3610 0.3579 0.3555 0.3547 0.3540 0.3571 0.3618 0.3673 0.3657 0.3626 0.3571 0.3547 0.3540 0.3540 0.3610 0.3704 0.3845 0.3939 0.4009 0.4056 0.4080 0.4088 0.4111 0.4143 0.4150 0.4143 0.4119 0.4096 0.4064 0.4017 0.3939 0.3837 0.3782 0.3759 0.3751 0.3743 0.3720 0.3657 0.3571 0.3493 0.3453 0.3446 0.3446 0.3516 0.3587 0.3665 0.3712 0.3774 0.3853 0.3939 0.3986 0.4009 0.4041 0.4064 0.4049 0.4017 0.4002 0.3994 0.3939 0.3915 0.3939 0.3986 0.4025 0.4033 0.4072 0.4119 0.4166 0.4205 0.4244 0.4268 0.4291 0.4315 0.4338 0.4362 0.4385 0.4393 0.4424 0.4448 0.4487 0.4542 0.4573 0.4573 0.4573 0.4565 0.4565 0.4558 0.4550 0.4526 0.4534 0.4550 0.4589 0.4597 0.4581 0.4518 0.4464 0.4432 0.4409 0.4385 0.4370 0.4370 0.4401 0.4448 0.4464 0.4534 0.4644 0.4738 0.4808 0.4847 0.4886 0.4926 0.4996 0.5020 0.5043 0.5082 0.5114 0.5137 0.5176 0.5208 0.5247 0.5294 0.5348 0.5427 0.5505 0.5568 0.5638 0.5732 0.5850 0.5944 0.6014 0.6061 0.6100 0.6132 0.6124
0.3829 0.3759 0.3712 0.3688 0.3688 0.3704 0.3735 0.3759 0.3774 0.3759 0.3727 0.3681 0.3634 0.3571 0.3508 0.3438 0.3367 0.3320 0.3258 0.3203 0.3179 0.3195 0.3203 0.3171 0.3078 0.2968 0.2890 0.2803 0.2725 0.2670 0.2639 0.2647 0.2717 0.2835 0.2952 0.3031 0.3117 0.3218 0.3281 0.3289 0.3258 0.3250 0.3234 0.3203 0.3148 0.3093 0.3054 0.3054 0.3054 0.3062 0.3085 0.3109 0.3140 0.3164 0.3156 0.3117 0.3085 0.3070 0.3078 0.3070 0.3038 0.2984 0.2937 0.2882 0.2827 0.2803 0.2811 0.2827 0.2819 0.2780 0.2686 0.2616 0.2584 0.2592 0.2647 0.2717 0.2780 0.2850 0.2937 0.3031 0.3093 0.3140 0.3125 0.3140 0.3171 0.3203 0.3242 0.3289 0.3312 0.3320 0.3328 0.3344 0.3359 0.3375 0.3399 0.3438 0.3500 0.3602 0.3657 0.3681 0.3665 0.3657 0.3649 0.3681 0.3673 0.3649 0.3618 0.3587 0.3555 0.3516 0.3493 0.3485 0.3485 0.3508 0.3579 0.3587 0.3563 0.3540 0.3508 0.3500 0.3516 0.3594 0.3696 0.3814 0.3900 0.3962 0.3978 0.3994 0.4009 0.4017 0.4049 0.4080 0.4080 0.4056 0.4025 0.3994 0.3962 0.3915 0.3861 0.3790 0.3727 0.3681 0.3641 0.3626 0.3618 0.3563 0.3477 0.3438 0.3414 0.3414 0.3493 0.3579 0.3665 0.3751 0.3821 0.3884 0.3978 0.4025 0.4041 0.4072 0.4111 0.4135 0.4096 0.4064 0.4072 0.4049 0.4017 0.4002 0.4025 0.4056 0.4080 0.4088 0.4127 0.4174 0.4229 0.4276 0.4315 0.4362 0.4385 0.4385 0.4409 0.4440 0.4479 0.4534 0.4565 0.4581 0.4612 0.4659 0.4683 0.4683 0.4675 0.4675 0.4699 0.4699 0.4652 0.4636 0.4636 0.4683 0.4714 0.4714 0.4683 0.4644 0.4597 0.4565 0.4526 0.4495 0.4456 0.4448 0.4464 0.4479 0.4511 0.4581 0.4699 0.4761 0.4792 0.4839 0.4879 0.4910 0.4957 0.4996 0.5004 0.5043 0.5074 0.5121 0.5161 0.5215 0.5286 0.5333 0.5372 0.5427 0.5521 0.5599 0.5670 0.5764 0.5865 0.5951 0.5991 0.6022 0.6077 0.6100 0.6100
0.3923 0.3837 0.3798 0.3774 0.3767 0.3782 0.3806 0.3806 0.3798 0.3782 0.3735 0.3681 0.3626 0.3579 0.3555 0.3540 0.3500 0.3446 0.3375 0.3312 0.3281 0.3273 0.3289 0.3265 0.3187 0.3078 0.2991 0.2905 0.2803 0.2709 0.2655 0.2655 0.2709 0.2788 0.2866 0.2944 0.3031 0.3179 0.3281 0.3344 0.3336 0.3320 0.3305 0.3250 0.3211 0.3187 0.3164 0.3156 0.3156 0.3187 0.3203 0.3226 0.3258 0.3273 0.3250 0.3226 0.3211 0.3234 0.3234 0.3226 0.3195 0.3148 0.3101 0.3054 0.3031 0.2999 0.2960 0.2905 0.2882 0.2819 0.2733 0.2662 0.2623 0.2600 0.2608 0.2670 0.2741 0.2811 0.2882 0.2952 0.3015 0.3038 0.3046 0.3070 0.3101 0.3140 0.3179 0.3234 0.3265 0.3273 0.3273 0.3289 0.3320 0.3344 0.3375 0.3430 0.3500 0.3563 0.3602 0.3579 0.3555 0.3547 0.3563 0.3587 0.3610 0.3610 0.3579 0.3532 0.3485 0.3446 0.3414 0.3414 0.3430 0.3469 0.3493 0.3500 0.3493 0.3485 0.3477 0.3485 0.3555 0.3657 0.3759 0.3845 0.3908 0.3939 0.3939 0.3939 0.3931 0.3955 0.3994 0.4025 0.4025 0.3994 0.3939 0.3908 0.3900 0.3868 0.3814 0.3743 0.3665 0.3587 0.3524 0.3508 0.3493 0.3430 0.3414 0.3399 0.3391 0.3453 0.3508 0.3587 0.3688 0.3782 0.3868 0.3955 0.4009 0.4041 0.4072 0.4135 0.4221 0.4213 0.4174 0.4150 0.4143 0.4135 0.4103 0.4088 0.4088 0.4127 0.4135 0.4158 0.4197 0.4229 0.4268 0.4354 0.4440 0.4487 0.4487 0.4495 0.4503 0.4542 0.4589 0.4644 0.4667 0.4699 0.4730 0.4761 0.4777 0.4777 0.4785 0.4800 0.4816 0.4800 0.4785 0.4753 0.4761 0.4777 0.4785 0.4800 0.4816 0.4792 0.4761 0.4699 0.4652 0.4589 0.4542 0.4518 0.4503 0.4503 0.4511 0.4605 0.4675 0.4714 0.4753 0.4800 0.4839 0.4879 0.4910 0.4957 0.4996 0.5027 0.5059 0.5114 0.5184 0.5247 0.5317 0.5364 0.5419 0.5497 0.5552 0.5591 0.5670 0.5764 0.5857 0.5920 0.5959 0.5991 0.6022 0.6053 0.6069
0.4017 0.3939 0.3892 0.3868 0.3845 0.3868 0.3892 0.3900 0.3876 0.3814 0.3759 0.3696 0.3657 0.3641 0.3641 0.3634 0.3594 0.3524 0.3453 0.3367 0.3312 0.3320 0.3344 0.3352 0.3273 0.3179 0.3093 0.2991 0.2874 0.2756 0.2686 0.2655 0.2686 0.2733 0.2803 0.2897 0.3015 0.3117 0.3234 0.3297 0.3328 0.3367 0.3359 0.3336 0.3289 0.3273 0.3273 0.3273 0.3289 0.3312 0.3336 0.3352 0.3367 0.3352 0.3344 0.3344 0.3344 0.3359 0.3367 0.3352 0.3320 0.3281 0.3226 0.3179 0.3148 0.3109 0.3046 0.2976 0.2929 0.2858 0.2764 0.2694 0.2631 0.2584 0.2592 0.2647 0.2733 0.2764 0.2811 0.2874 0.2913 0.2944 0.2960 0.2999 0.3038 0.3085 0.3132 0.3179 0.3226 0.3242 0.3258 0.3273 0.3312 0.3344 0.3359 0.3406 0.3453 0.3516 0.3508 0.3477 0.3438 0.3446 0.3469 0.3508 0.3555 0.3571 0.3532 0.3461 0.3383 0.3344 0.3336 0.3352 0.3406 0.3422 0.3422 0.3414 0.3422 0.3430 0.3469 0.3532 0.3594 0.3673 0.3743 0.3814 0.3845 0.3853 0.3853 0.3861 0.3861 0.3884 0.3908 0.3947 0.3970 0.3923 0.3868 0.3837 0.3821 0.3782 0.3743 0.3681 0.3602 0.3508 0.3461 0.3430 0.3399 0.3383 0.3383 0.3399 0.3446 0.3493 0.3563 0.3618 0.3712 0.3837 0.3939 0.3994 0.4017 0.4072 0.4111 0.4158 0.4229 0.4283 0.4299 0.4283 0.4268 0.4244 0.4221 0.4197 0.4197 0.4205 0.4221 0.4260 0.4299 0.4338 0.4385 0.4448 0.4511 0.4550 0.4581 0.4597 0.4620 0.4636 0.4659 0.4699 0.4769 0.4824 0.4855 0.4863 0.4863 0.4886 0.4910 0.4918 0.4926 0.4926 0.4926 0.4918 0.4910 0.4933 0.4926 0.4910 0.4902 0.4894 0.4863 0.4824 0.4761 0.4706 0.4667 0.4620 0.4573 0.4550 0.4550 0.4581 0.4620 0.4667 0.4706 0.4761 0.4816 0.4847 0.4894 0.4965 0.5027 0.5090 0.5129 0.5184 0.5231 0.5294 0.5356 0.5435 0.5505 0.5536 0.5552 0.5591 0.5654 0.5724 0.5810 0.5881 0.5928 0.5944 0.5967 0.6022 0.6061
0.4119 0.4056 0.4009 0.3955 0.3947 0.3955 0.3962 0.3955 0.3908 0.3845 0.3782 0.3751 0.3735 0.3727 0.3704 0.3673 0.3626 0.3547 0.3438 0.3344 0.3328 0.3352 0.3406 0.3414 0.3367 0.3281 0.3179 0.3070 0.2968 0.2827 0.2717 0.2662 0.2662 0.2709 0.2788 0.2882 0.2968 0.3046 0.3125 0.3211 0.3297 0.3352 0.3383 0.3383 0.3375 0.3367 0.3367 0.3391 0.3414 0.3422 0.3422 0.3430 0.3430 0.3430 0.3430 0.3438 0.3461 0.3493 0.3493 0.3461 0.3430 0.3383 0.3328 0.3258 0.3234 0.3179 0.3125 0.3070 0.2999 0.2905 0.2788 0.2717 0.2662 0.2623 0.2600 0.2639 0.2662 0.2702 0.2749 0.2803 0.2835 0.2858 0.2913 0.2968 0.3031 0.3085 0.3132 0.3195 0.3226 0.3234 0.3242 0.3265 0.3289 0.3289 0.3312 0.3359 0.3406 0.3422 0.3430 0.3383 0.3344 0.3344 0.3383 0.3438 0.3485 0.3493 0.3469 0.3399 0.3336 0.3297 0.3273 0.3328 0.3367 0.3375 0.3359 0.3344 0.3344 0.3399 0.3461 0.3532 0.3571 0.3626 0.3673 0.3727 0.3759 0.3774 0.3790 0.3814 0.3829 0.3837 0.3845 0.3861 0.3861 0.3845 0.3814 0.3759 0.3712 0.3688 0.3634 0.3587 0.3516 0.3446 0.3399 0.3367 0.3352 0.3359 0.3399 0.3477 0.3532 0.3587 0.3634 0.3696 0.3782 0.3892 0.3986 0.4033 0.4072 0.4103 0.4150 0.4190 0.4236 0.4291 0.4354 0.4377 0.4362 0.4346 0.4315 0.4307 0.4323 0.4338 0.4370 0.4409 0.4448 0.4471 0.4487 0.4511 0.4534 0.4581 0.4620 0.4659 0.4683 0.4706 0.4738 0.4792 0.4863 0.4926 0.4941 0.4949 0.4949 0.4949 0.4973 0.4996 0.5012 0.5027 0.5035 0.5035 0.5035 0.5074 0.5082 0.5067 0.5035 0.4988 0.4933 0.4894 0.4847 0.4808 0.4800 0.4769 0.4691 0.4628 0.4605 0.4605 0.4620 0.4652 0.4706 0.4761 0.4808 0.4832 0.4871 0.4941 0.5067 0.5153 0.5192 0.5239 0.5278 0.5317 0.5380 0.5435 0.5458 0.5482 0.5521 0.5568 0.5615 0.5685 0.5771 0.5834 0.5873 0.5904 0.5944 0.5998 0.6061
0.4213 0.4174 0.4111 0.4072 0.4025 0.4017 0.4009 0.3978 0.3931 0.3876 0.3861 0.3845 0.3829 0.3806 0.3774 0.3735 0.3657 0.3555 0.3430 0.3383 0.3375 0.3406 0.3430 0.3469 0.3469 0.3359 0.3250 0.3140 0.3015 0.2897 0.2796 0.2725 0.2670 0.2694 0.2756 0.2858 0.2937 0.2999 0.3062 0.3156 0.3234 0.3289 0.3383 0.3446 0.3485 0.3516 0.3532 0.3532 0.3540 0.3532 0.3516 0.3516 0.3516 0.3524 0.3532 0.3532 0.3547 0.3587 0.3594 0.3563 0.3516 0.3469 0.3414 0.3383 0.3344 0.3305 0.3234 0.3164 0.3085 0.2968 0.2874 0.2796 0.2733 0.2678 0.2639 0.2616 0.2608 0.2631 0.2678 0.2749 0.2803 0.2843 0.2913 0.3015 0.3085 0.3140 0.3187 0.3195 0.3203 0.3203 0.3195 0.3187 0.3187 0.3203 0.3218 0.3242 0.3265 0.3289 0.3297 0.3281 0.3250 0.3234 0.3265 0.3344 0.3399 0.3399 0.3375 0.3336 0.3289 0.3242 0.3234 0.3265 0.3305 0.3305 0.3297 0.3289 0.3336 0.3406 0.3477 0.3500 0.3540 0.3587 0.3626 0.3665 0.3704 0.3720 0.3751 0.3806 0.3782 0.3759 0.3759 0.3759 0.3759 0.3759 0.3712 0.3673 0.3641 0.3587 0.3547 0.3493 0.3406 0.3367 0.3328 0.3328 0.3336 0.3383 0.3493 0.3626 0.3688 0.3743 0.3806 0.3853 0.3876 0.3939 0.4009 0.4056 0.4088 0.4127 0.4166 0.4197 0.4244 0.4330 0.4401 0.4448 0.4448 0.4424 0.4424 0.4432 0.4448 0.4471 0.4503 0.4534 0.4558 0.4565 0.4573 0.4573 0.4589 0.4612 0.4659 0.4722 0.4777 0.4808 0.4832 0.4855 0.4894 0.4941 0.4973 0.5004 0.5035 0.5067 0.5090 0.5098 0.5121 0.5114 0.5121 0.5121 0.5129 0.5145 0.5161 0.5161 0.5121 0.5051 0.5004 0.4965 0.4941 0.4933 0.4910 0.4863 0.4785 0.4730 0.4706 0.4699 0.4691 0.4714 0.4738 0.4761 0.4785 0.4816 0.4871 0.4980 0.5090 0.5168 0.5192 0.5208 0.5223 0.5255 0.5301 0.5348 0.5372 0.5395 0.5442 0.5521 0.5591 0.5662 0.5748 0.5803 0.5834 0.5857 0.5897 0.5967 0.6045
0.4299 0.4244 0.4197 0.4143 0.4103 0.4064 0.4033 0.4009 0.3978 0.3955 0.3915 0.3900 0.3892 0.3868 0.3806 0.3751 0.3688 0.3571 0.3477 0.3438 0.3438 0.3461 0.3485 0.3532 0.3493 0.3406 0.3297 0.3187 0.3078 0.2960 0.2874 0.2796 0.2733 0.2725 0.2764 0.2843 0.2905 0.2952 0.2999 0.3085 0.3171 0.3234 0.3352 0.3493 0.3571 0.3618 0.3649 0.3634 0.3634 0.3626 0.3626 0.3626 0.3634 0.3626 0.3618 0.3610 0.3618 0.3641 0.3657 0.3634 0.3594 0.3563 0.3516 0.3485 0.3453 0.3399 0.3344 0.3273 0.3171 0.3078 0.2984 0.2905 0.2827 0.2749 0.2694 0.2639 0.2616 0.2608 0.2662 0.2764 0.2843 0.2905 0.2984 0.3054 0.3101 0.3117 0.3125 0.3117 0.3109 0.3117 0.3109 0.3070 0.3054 0.3054 0.3093 0.3117 0.3125 0.3140 0.3156 0.3171 0.3148 0.3132 0.3156 0.3242 0.3297 0.3328 0.3305 0.3250 0.3203 0.3203 0.3218 0.3258 0.3250 0.3242 0.3242 0.3297 0.3352 0.3399 0.3438 0.3485 0.3524 0.3587 0.3618 0.3649 0.3673 0.3704 0.3759 0.3790 0.3767 0.3712 0.3688 0.3673 0.3681 0.3649 0.3626 0.3610 0.3555 0.3493 0.3430 0.3367 0.3328 0.3281 0.3297 0.3352 0.3430 0.3500 0.3610 0.3704 0.3798 0.3861 0.3908 0.3939 0.3970 0.4002 0.4041 0.4072 0.4096 0.4143 0.4190 0.4252 0.4307 0.4362 0.4424 0.4479 0.4495 0.4511 0.4503 0.4503 0.4526 0.4550 0.4597 0.4652 0.4667 0.4675 0.4683 0.4691 0.4675 0.4699 0.4753 0.4832 0.4871 0.4894 0.4894 0.4902 0.4926 0.4957 0.5004 0.5059 0.5114 0.5153 0.5192 0.5208 0.5192 0.5192 0.5184 0.5192 0.5200 0.5208 0.5200 0.5192 0.5161 0.5114 0.5074 0.5051 0.5043 0.5043 0.5027 0.4973 0.4886 0.4839 0.4808 0.4792 0.4785 0.4777 0.4777 0.4777 0.4792 0.4816 0.4871 0.4949 0.5035 0.5090 0.5121 0.5137 0.5161 0.5184 0.5223 0.5278 0.5301 0.5317 0.5364 0.5450 0.5544 0.5623 0.5693 0.5756 0.5779 0.5803 0.5850 0.5897 0.5944
0.4377 0.4330 0.4268 0.4205 0.4174 0.4158 0.4127 0.4096 0.4064 0.4033 0.3994 0.3955 0.3923 0.3876 0.3814 0.3751 0.3681 0.3587 0.3500 0.3461 0.3493 0.3540 0.3579 0.3571 0.3516 0.3430 0.3328 0.3218 0.3109 0.3015 0.2921 0.2827 0.2756 0.2717 0.2756 0.2811 0.2866 0.2882 0.2929 0.2999 0.3109 0.3226 0.3367 0.3469 0.3555 0.3618 0.3634 0.3641 0.3657 0.3688 0.3720 0.3759 0.3767 0.3759 0.3735 0.3712 0.3712 0.3743 0.3759 0.3767 0.3743 0.3704 0.3649 0.3618 0.3571 0.3508 0.3461 0.3406 0.3320 0.3242 0.3125 0.3007 0.2905 0.2819 0.2749 0.2686 0.2639 0.2631 0.2717 0.2811 0.2890 0.2952 0.2991 0.3015 0.3038 0.3031 0.3023 0.3015 0.3015 0.3007 0.3007 0.2968 0.2913 0.2874 0.2897 0.2937 0.2968 0.2991 0.2999 0.3015 0.3031 0.3046 0.3101 0.3148 0.3203 0.3226 0.3203 0.3164 0.3156 0.3179 0.3242 0.3242 0.3218 0.3203 0.3226 0.3265 0.3336 0.3375 0.3406 0.3438 0.3500 0.3571 0.3634 0.3673 0.3704 0.3743 0.3790 0.3798 0.3751 0.3688 0.3634 0.3602 0.3579 0.3555 0.3532 0.3485 0.3430 0.3352 0.3320 0.3281 0.3281 0.3305 0.3367 0.3469 0.3547 0.3626 0.3688 0.3782 0.3861 0.3923 0.4009 0.4072 0.4119 0.4135 0.4135 0.4150 0.4182 0.4221 0.4268 0.4323 0.4362 0.4385 0.4424 0.4471 0.4511 0.4534 0.4550 0.4565 0.4581 0.4612 0.4667 0.4706 0.4738 0.4753 0.4792 0.4808 0.4816 0.4832 0.4871 0.4910 0.4949 0.4973 0.4973 0.4980 0.4980 0.4996 0.5035 0.5098 0.5153 0.5192 0.5215 0.5231 0.5239 0.5239 0.5239 0.5239 0.5247 0.5247 0.5239 0.5215 0.5184 0.5161 0.5161 0.5137 0.5129 0.5121 0.5098 0.5043 0.4988 0.4926 0.4879 0.4863 0.4839 0.4839 0.4824 0.4808 0.4800 0.4824 0.4871 0.4918 0.4949 0.4988 0.5027 0.5067 0.5082 0.5106 0.5137 0.5200 0.5255 0.5278 0.5301 0.5364 0.5450 0.5529 0.5607 0.5662 0.5693 0.5732 0.5779 0.5818 0.5857
0.4448 0.4401 0.4330 0.4276 0.4252 0.4236 0.4213 0.4182 0.4143 0.4103 0.4056 0.4002 0.3955 0.3884 0.3806 0.3735 0.3665 0.3571 0.3493 0.3469 0.3500 0.3579 0.3602 0.3602 0.3547 0.3477 0.3367 0.3250 0.3156 0.3054 0.2952 0.2835 0.2741 0.2709 0.2741 0.2788 0.2819 0.2835 0.2874 0.2976 0.3101 0.3226 0.3359 0.3453 0.3508 0.3532 0.3579 0.3626 0.3673 0.3727 0.3790 0.3845 0.3861 0.3845 0.3876 0.3892 0.3853 0.3853 0.3892 0.3900 0.3876 0.3868 0.3814 0.3767 0.3712 0.3634 0.3587 0.3508 0.3438 0.3328 0.3203 0.3070 0.2976 0.2882 0.2788 0.2694 0.2631 0.2639 0.2709 0.2788 0.2850 0.2905 0.2929 0.2944 0.2944 0.2921 0.2913 0.2890 0.2866 0.2858 0.2858 0.2835 0.2796 0.2772 0.2756 0.2772 0.2819 0.2850 0.2858 0.2866 0.2882 0.2937 0.2999 0.3038 0.3038 0.3046 0.3085 0.3101 0.3125 0.3179 0.3195 0.3187 0.3171 0.3164 0.3171 0.3226 0.3312 0.3367 0.3391 0.3438 0.3500 0.3579 0.3657 0.3712 0.3751 0.3767 0.3782 0.3767 0.3712 0.3649 0.3587 0.3532 0.3493 0.3461 0.3422 0.3367 0.3305 0.3265 0.3250 0.3265 0.3320 0.3383 0.3461 0.3555 0.3657 0.3735 0.3806 0.3900 0.3962 0.4041 0.4111 0.4197 0.4260 0.4307 0.4315 0.4346 0.4346 0.4346 0.4370 0.4409 0.4424 0.4448 0.4471 0.4495 0.4534 0.4573 0.4612 0.4644 0.4667 0.4675 0.4706 0.4745 0.4761 0.4800 0.4855 0.4902 0.4941 0.4973 0.4996 0.5012 0.5012 0.5027 0.5043 0.5051 0.5051 0.5051 0.5074 0.5145 0.5208 0.5231 0.5247 0.5262 0.5262 0.5278 0.5278 0.5270 0.5262 0.5270 0.5270 0.5247 0.5223 0.5223 0.5223 0.5223 0.5200 0.5168 0.5137 0.5098 0.5059 0.5020 0.4988 0.4949 0.4933 0.4910 0.4894 0.4871 0.4863 0.4886 0.4894 0.4902 0.4926 0.4949 0.5004 0.5020 0.5043 0.5059 0.5098 0.5168 0.5231 0.5278 0.5301 0.5341 0.5395 0.5458 0.5513 0.5560 0.5591 0.5615 0.5654 0.5724 0.5771
0.4526 0.4471 0.4417 0.4377 0.4338 0.4299 0.4260 0.4221 0.4166 0.4111 0.4072 0.4025 0.3962 0.3884 0.3806 0.3704 0.3618 0.3540 0.3485 0.3477 0.3493 0.3571 0.3641 0.3626 0.3571 0.3500 0.3399 0.3312 0.3218 0.3117 0.2999 0.2882 0.2803 0.2756 0.2749 0.2749 0.2780 0.2803 0.2850 0.2952 0.3101 0.3218 0.3328 0.3414 0.3438 0.3469 0.3524 0.3594 0.3665 0.3743 0.3837 0.3908 0.3955 0.4002 0.4056 0.4103 0.4049 0.4025 0.4056 0.4072 0.4049 0.4025 0.3955 0.3892 0.3821 0.3751 0.3673 0.3579 0.3493 0.3383 0.3250 0.3156 0.3054 0.2937 0.2811 0.2694 0.2631 0.2655 0.2702 0.2756 0.2803 0.2843 0.2850 0.2858 0.2843 0.2827 0.2796 0.2772 0.2741 0.2725 0.2725 0.2741 0.2741 0.2717 0.2694 0.2709 0.2741 0.2764 0.2764 0.2764 0.2780 0.2827 0.2882 0.2905 0.2913 0.2929 0.2968 0.3023 0.3085 0.3125 0.3148 0.3132 0.3117 0.3117 0.3140 0.3218 0.3312 0.3375 0.3422 0.3461 0.3524 0.3610 0.3688 0.3727 0.3759 0.3759 0.3735 0.3696 0.3641 0.3571 0.3508 0.3453 0.3375 0.3328 0.3289 0.3265 0.3250 0.3234 0.3242 0.3273 0.3320 0.3406 0.3500 0.3587 0.3712 0.3814 0.3892 0.3962 0.4009 0.4064 0.4158 0.4236 0.4299 0.4370 0.4432 0.4440 0.4456 0.4456 0.4464 0.4479 0.4511 0.4534 0.4550 0.4573 0.4620 0.4659 0.4699 0.4730 0.4722 0.4722 0.4738 0.4761 0.4816 0.4863 0.4902 0.4965 0.5035 0.5082 0.5121 0.5106 0.5074 0.5074 0.5082 0.5098 0.5098 0.5106 0.5145 0.5200 0.5255 0.5286 0.5294 0.5294 0.5309 0.5317 0.5309 0.5286 0.5278 0.5286 0.5286 0.5286 0.5278 0.5278 0.5278 0.5278 0.5262 0.5255 0.5239 0.5208 0.5168 0.5121 0.5067 0.5020 0.4988 0.4973 0.4957 0.4973 0.4988 0.4980 0.4980 0.4973 0.4965 0.4988 0.5012 0.5035 0.5067 0.5114 0.5176 0.5215 0.5270 0.5333 0.5364 0.5388 0.5411 0.5419 0.5435 0.5474 0.5505 0.5536 0.5576 0.5623 0.5677
0.4612 0.4558 0.4518 0.4456 0.4393 0.4338 0.4283 0.4221 0.4143 0.4080 0.4041 0.3994 0.3923 0.3853 0.3759 0.3665 0.3587 0.3532 0.3516 0.3532 0.3594 0.3696 0.3704 0.3665 0.3610 0.3540 0.3453 0.3383 0.3297 0.3195 0.3078 0.2984 0.2897 0.2827 0.2749 0.2741 0.2756 0.2764 0.2796 0.2921 0.3038 0.3148 0.3273 0.3344 0.3391 0.3430 0.3485 0.3563 0.3634 0.3727 0.3837 0.3955 0.4033 0.4088 0.4150 0.4182 0.4213 0.4190 0.4174 0.4166 0.4143 0.4096 0.4025 0.3955 0.3884 0.3806 0.3735 0.3657 0.3555 0.3453 0.3344 0.3250 0.3125 0.2999 0.2882 0.2749 0.2655 0.2655 0.2678 0.2725 0.2772 0.2772 0.2764 0.2764 0.2780 0.2756 0.2717 0.2709 0.2709 0.2709 0.2741 0.2780 0.2803 0.2788 0.2764 0.2749 0.2749 0.2764 0.2756 0.2756 0.2764 0.2788 0.2803 0.2819 0.2827 0.2835 0.2858 0.2913 0.2960 0.3015 0.3070 0.3070 0.3078 0.3085 0.3125 0.3195 0.3297 0.3367 0.3430 0.3500 0.3563 0.3618 0.3688 0.3727 0.3743 0.3727 0.3688 0.3634 0.3563 0.3500 0.3438 0.3367 0.3289 0.3211 0.3195 0.3234 0.3273 0.3281 0.3305 0.3336 0.3383 0.3453 0.3540 0.3610 0.3704 0.3806 0.3884 0.3947 0.3986 0.4056 0.4135 0.4205 0.4283 0.4377 0.4440 0.4495 0.4534 0.4550 0.4558 0.4558 0.4573 0.4597 0.4636 0.4683 0.4699 0.4706 0.4722 0.4753 0.4769 0.4769 0.4777 0.4808 0.4847 0.4918 0.4980 0.5035 0.5106 0.5176 0.5215 0.5200 0.5184 0.5192 0.5184 0.5168 0.5168 0.5192 0.5215 0.5262 0.5301 0.5317 0.5325 0.5341 0.5356 0.5380 0.5356 0.5317 0.5317 0.5309 0.5317 0.5325 0.5333 0.5333 0.5325 0.5325 0.5341 0.5348 0.5348 0.5301 0.5262 0.5208 0.5145 0.5106 0.5074 0.5074 0.5098 0.5129 0.5121 0.5106 0.5098 0.5090 0.5098 0.5082 0.5114 0.5145 0.5192 0.5247 0.5270 0.5309 0.5341 0.5380 0.5427 0.5450 0.5466 0.5466 0.5458 0.5466 0.5482 0.5497 0.5544 0.5591 0.5623
0.4699 0.4652 0.4581 0.4511 0.4417 0.4354 0.4291 0.4213 0.4096 0.4049 0.3994 0.3939 0.3868 0.3798 0.3704 0.3634 0.3587 0.3571 0.3587 0.3634 0.3720 0.3767 0.3767 0.3720 0.3665 0.3610 0.3547 0.3469 0.3391 0.3297 0.3179 0.3101 0.3023 0.2921 0.2835 0.2788 0.2772 0.2780 0.2803 0.2890 0.2976 0.3070 0.3179 0.3289 0.3375 0.3438 0.3500 0.3571 0.3634 0.3735 0.3868 0.3955 0.4025 0.4096 0.4182 0.4260 0.4268 0.4213 0.4158 0.4111 0.4072 0.4033 0.3986 0.3923 0.3868 0.3821 0.3759 0.3696 0.3587 0.3485 0.3375 0.3258 0.3117 0.3007 0.2913 0.2780 0.2670 0.2639 0.2639 0.2662 0.2694 0.2686 0.2670 0.2686 0.2702 0.2717 0.2733 0.2749 0.2788 0.2827 0.2866 0.2913 0.2952 0.2968 0.2944 0.2952 0.2929 0.2882 0.2835 0.2803 0.2788 0.2772 0.2772 0.2780 0.2780 0.2780 0.2796 0.2827 0.2866 0.2913 0.2952 0.2999 0.3007 0.3031 0.3078 0.3164 0.3258 0.3344 0.3406 0.3469 0.3547 0.3634 0.3681 0.3696 0.3681 0.3665 0.3626 0.3579 0.3508 0.3446 0.3391 0.3320 0.3234 0.3171 0.3211 0.3281 0.3320 0.3344 0.3375 0.3406 0.3446 0.3485 0.3571 0.3641 0.3720 0.3790 0.3861 0.3915 0.3962 0.4017 0.4096 0.4166 0.4252 0.4338 0.4417 0.4503 0.4565 0.4597 0.4605 0.4612 0.4620 0.4652 0.4706 0.4738 0.4761 0.4777 0.4761 0.4769 0.4800 0.4824 0.4832 0.4839 0.4886 0.4965 0.5043 0.5098 0.5168 0.5255 0.5301 0.5341 0.5317 0.5270 0.5262 0.5278 0.5286 0.5309 0.5317 0.5317 0.5333 0.5341 0.5341 0.5348 0.5372 0.5388 0.5380 0.5364 0.5364 0.5364 0.5356 0.5364 0.5380 0.5380 0.5388 0.5388 0.5411 0.5419 0.5395 0.5364 0.5325 0.5270 0.5231 0.5208 0.5192 0.5184 0.5200 0.5247 0.5239 0.5223 0.5223 0.5231 0.5231 0.5215 0.5231 0.5262 0.5294 0.5317 0.5364 0.5395 0.5427 0.5474 0.5497 0.5513 0.5544 0.5560 0.5544 0.5544 0.5544 0.5552 0.5591 0.5638 0.5654
0.4745 0.4691 0.4636 0.4526 0.4440 0.4346 0.4276 0.4166 0.4072 0.4017 0.3947 0.3868 0.3790 0.3712 0.3657 0.3610 0.3602 0.3618 0.3657 0.3704 0.3735 0.3759 0.3782 0.3767 0.3727 0.3696 0.3649 0.3594 0.3555 0.3461 0.3352 0.3226 0.3125 0.3031 0.2929 0.2850 0.2796 0.2764 0.2803 0.2890 0.2991 0.3070 0.3164 0.3273 0.3367 0.3446 0.3516 0.3587 0.3649 0.3727 0.3821 0.3931 0.4009 0.4072 0.4158 0.4229 0.4205 0.4135 0.4080 0.4017 0.3970 0.3931 0.3884 0.3837 0.3806 0.3774 0.3712 0.3626 0.3532 0.3430 0.3320 0.3187 0.3078 0.3007 0.2897 0.2772 0.2678 0.2623 0.2616 0.2623 0.2647 0.2662 0.2670 0.2686 0.2725 0.2772 0.2796 0.2819 0.2890 0.2968 0.3038 0.3109 0.3148 0.3171 0.3171 0.3171 0.3140 0.3062 0.2984 0.2921 0.2866 0.2827 0.2811 0.2796 0.2788 0.2772 0.2772 0.2780 0.2796 0.2827 0.2866 0.2913 0.2937 0.2960 0.3038 0.3132 0.3211 0.3289 0.3359 0.3438 0.3532 0.3626 0.3681 0.3657 0.3626 0.3602 0.3579 0.3540 0.3485 0.3430 0.3359 0.3281 0.3218 0.3187 0.3211 0.3273 0.3336 0.3391 0.3414 0.3453 0.3516 0.3579 0.3641 0.3696 0.3751 0.3790 0.3853 0.3915 0.3978 0.4033 0.4096 0.4182 0.4268 0.4354 0.4424 0.4511 0.4589 0.4620 0.4636 0.4652 0.4675 0.4699 0.4738 0.4769 0.4808 0.4824 0.4824 0.4863 0.4894 0.4933 0.4926 0.4902 0.4941 0.4988 0.5074 0.5145 0.5215 0.5294 0.5372 0.5419 0.5427 0.5403 0.5372 0.5372 0.5403 0.5380 0.5380 0.5380 0.5395 0.5388 0.5372 0.5380 0.5380 0.5395 0.5395 0.5395 0.5419 0.5427 0.5427 0.5419 0.5419 0.5419 0.5427 0.5466 0.5505 0.5513 0.5489 0.5458 0.5411 0.5372 0.5341 0.5325 0.5301 0.5278 0.5294 0.5333 0.5364 0.5356 0.5341 0.5341 0.5341 0.5348 0.5356 0.5356 0.5372 0.5419 0.5466 0.5505 0.5552 0.5568 0.5576 0.5583 0.5607 0.5623 0.5638 0.5654 0.5670 0.5693 0.5740 0.5779 0.5795
0.4738 0.4667 0.4589 0.4534 0.4456 0.4338 0.4229 0.4135 0.4041 0.3962 0.3884 0.3814 0.3743 0.3681 0.3641 0.3641 0.3657 0.3688 0.3720 0.3751 0.3767 0.3774 0.3798 0.3814 0.3790 0.3767 0.3720 0.3688 0.3626 0.3540 0.3406 0.3265 0.3164 0.3078 0.2984 0.2882 0.2803 0.2780 0.2803 0.2882 0.2999 0.3109 0.3179 0.3258 0.3359 0.3446 0.3508 0.3571 0.3626 0.3681 0.3782 0.3908 0.4002 0.4088 0.4150 0.4182 0.4158 0.4080 0.4002 0.3923 0.3861 0.3814 0.3774 0.3743 0.3704 0.3673 0.3602 0.3532 0.3438 0.3352 0.3250 0.3132 0.3023 0.2921 0.2843 0.2780 0.2717 0.2670 0.2725 0.2796 0.2835 0.2850 0.2850 0.2850 0.2897 0.2937 0.2952 0.3007 0.3062 0.3132 0.3179 0.3226 0.3289 0.3320 0.3328 0.3344 0.3312 0.3273 0.3226 0.3148 0.3062 0.2984 0.2929 0.2882 0.2850 0.2811 0.2780 0.2764 0.2772 0.2788 0.2819 0.2850 0.2897 0.2944 0.2999 0.3093 0.3179 0.3258 0.3328 0.3406 0.3485 0.3587 0.3634 0.3634 0.3587 0.3563 0.3540 0.3500 0.3438 0.3383 0.3328 0.3258 0.3187 0.3156 0.3211 0.3273 0.3328 0.3367 0.3406 0.3461 0.3547 0.3618 0.3673 0.3727 0.3790 0.3853 0.3915 0.4002 0.4072 0.4127 0.4190 0.4260 0.4346 0.4417 0.4471 0.4534 0.4597 0.4628 0.4659 0.4675 0.4714 0.4753 0.4777 0.4800 0.4824 0.4847 0.4886 0.4933 0.4988 0.5012 0.5035 0.5035 0.5004 0.5027 0.5082 0.5153 0.5247 0.5333 0.5419 0.5466 0.5489 0.5497 0.5482 0.5466 0.5442 0.5427 0.5427 0.5435 0.5427 0.5411 0.5419 0.5427 0.5419 0.5427 0.5435 0.5450 0.5482 0.5497 0.5497 0.5505 0.5513 0.5513 0.5536 0.5576 0.5630 0.5638 0.5630 0.5607 0.5552 0.5497 0.5474 0.5458 0.5427 0.5395 0.5403 0.5442 0.5474 0.5482 0.5450 0.5435 0.5442 0.5466 0.5458 0.5450 0.5442 0.5497 0.5560 0.5599 0.5623 0.5623 0.5623 0.5646 0.5670 0.5701 0.5740 0.5764 0.5771 0.5803 0.5826 0.5850 0.5857
0.4675 0.4597 0.4542 0.4487 0.4424 0.4307 0.4197 0.4096 0.3994 0.3923 0.3845 0.3790 0.3751 0.3743 0.3751 0.3782 0.3790 0.3798 0.3821 0.3853 0.3876 0.3868 0.3861 0.3837 0.3806 0.3767 0.3735 0.3681 0.3618 0.3563 0.3461 0.3359 0.3226 0.3109 0.3023 0.2929 0.2858 0.2819 0.2819 0.2858 0.2960 0.3062 0.3164 0.3250 0.3305 0.3375 0.3461 0.3532 0.3571 0.3618 0.3704 0.3806 0.3931 0.4017 0.4096 0.4158 0.4096 0.4025 0.3923 0.3829 0.3751 0.3688 0.3665 0.3626 0.3587 0.3555 0.3508 0.3438 0.3344 0.3242 0.3132 0.3015 0.2897 0.2827 0.2780 0.2796 0.2835 0.2882 0.2913 0.2984 0.3023 0.3031 0.3038 0.3062 0.3093 0.3117 0.3148 0.3195 0.3265 0.3312 0.3359 0.3406 0.3446 0.3477 0.3493 0.3485 0.3469 0.3430 0.3359 0.3281 0.3203 0.3125 0.3054 0.3007 0.2976 0.2944 0.2897 0.2866 0.2835 0.2827 0.2827 0.2843 0.2874 0.2937 0.3015 0.3109 0.3195 0.3242 0.3289 0.3359 0.3453 0.3524 0.3563 0.3555 0.3540 0.3508 0.3477 0.3422 0.3367 0.3312 0.3258 0.3187 0.3132 0.3148 0.3211 0.3320 0.3359 0.3399 0.3414 0.3477 0.3547 0.3626 0.3688 0.3774 0.3861 0.3939 0.4009 0.4080 0.4158 0.4221 0.4268 0.4346 0.4432 0.4479 0.4526 0.4565 0.4605 0.4659 0.4691 0.4722 0.4761 0.4792 0.4824 0.4839 0.4847 0.4879 0.4926 0.4996 0.5059 0.5106 0.5114 0.5114 0.5098 0.5090 0.5106 0.5168 0.5247 0.5348 0.5427 0.5482 0.5544 0.5568 0.5576 0.5552 0.5521 0.5521 0.5505 0.5497 0.5482 0.5474 0.5482 0.5505 0.5513 0.5529 0.5536 0.5560 0.5591 0.5607 0.5599 0.5599 0.5607 0.5623 0.5646 0.5685 0.5709 0.5724 0.5724 0.5717 0.5701 0.5662 0.5615 0.5583 0.5544 0.5536 0.5544 0.5560 0.5583 0.5599 0.5599 0.5599 0.5615 0.5607 0.5599 0.5560 0.5552 0.5568 0.5576 0.5615 0.5638 0.5654 0.5670 0.5693 0.5717 0.5756 0.5795 0.5818 0.5842 0.5850 0.5873 0.5881 0.5897
0.4605 0.4526 0.4471 0.4424 0.4362 0.4276 0.4166 0.4064 0.3978 0.3908 0.3845 0.3806 0.3814 0.3845 0.3908 0.3939 0.3955 0.3947 0.3962 0.3994 0.3986 0.3962 0.3915 0.3861 0.3814 0.3759 0.3720 0.3673 0.3618 0.3571 0.3508 0.3399 0.3289 0.3179 0.3078 0.3007 0.2944 0.2882 0.2835 0.2827 0.2858 0.2968 0.3109 0.3203 0.3265 0.3312 0.3399 0.3461 0.3508 0.3547 0.3618 0.3712 0.3798 0.3915 0.4056 0.4072 0.4049 0.3962 0.3876 0.3774 0.3681 0.3610 0.3555 0.3524 0.3485 0.3446 0.3414 0.3328 0.3226 0.3140 0.3038 0.2929 0.2827 0.2788 0.2788 0.2843 0.2999 0.3070 0.3093 0.3125 0.3140 0.3132 0.3148 0.3187 0.3234 0.3258 0.3273 0.3336 0.3406 0.3453 0.3516 0.3579 0.3634 0.3626 0.3626 0.3618 0.3587 0.3540 0.3485 0.3406 0.3328 0.3258 0.3203 0.3164 0.3148 0.3117 0.3054 0.2991 0.2944 0.2905 0.2866 0.2850 0.2843 0.2913 0.3038 0.3109 0.3164 0.3211 0.3265 0.3344 0.3430 0.3485 0.3493 0.3477 0.3461 0.3438 0.3391 0.3344 0.3289 0.3242 0.3187 0.3164 0.3148 0.3195 0.3336 0.3406 0.3453 0.3477 0.3500 0.3555 0.3626 0.3696 0.3774 0.3861 0.3939 0.4009 0.4056 0.4127 0.4229 0.4299 0.4362 0.4432 0.4526 0.4612 0.4644 0.4652 0.4667 0.4691 0.4730 0.4745 0.4792 0.4832 0.4847 0.4871 0.4910 0.4941 0.4973 0.5051 0.5106 0.5129 0.5161 0.5161 0.5161 0.5161 0.5208 0.5247 0.5301 0.5403 0.5505 0.5583 0.5623 0.5646 0.5654 0.5646 0.5638 0.5623 0.5615 0.5607 0.5599 0.5599 0.5607 0.5615 0.5607 0.5615 0.5638 0.5670 0.5693 0.5709 0.5701 0.5701 0.5717 0.5724 0.5764 0.5803 0.5818 0.5834 0.5826 0.5818 0.5795 0.5771 0.5740 0.5701 0.5670 0.5662 0.5685 0.5717 0.5724 0.5732 0.5740 0.5764 0.5764 0.5740 0.5685 0.5670 0.5646 0.5630 0.5638 0.5654 0.5677 0.5693 0.5709 0.5732 0.5764 0.5803 0.5826 0.5842 0.5873 0.5897 0.5920 0.5951 0.5998
0.4526 0.4471 0.4417 0.4346 0.4291 0.4213 0.4150 0.4080 0.3978 0.3900 0.3876 0.3876 0.3915 0.3970 0.4009 0.4049 0.4072 0.4096 0.4111 0.4103 0.4072 0.4017 0.3962 0.3892 0.3829 0.3774 0.3720 0.3688 0.3634 0.3579 0.3508 0.3430 0.3352 0.3273 0.3187 0.3109 0.3023 0.2952 0.2874 0.2827 0.2803 0.2897 0.3015 0.3125 0.3211 0.3265 0.3328 0.3399 0.3453 0.3500 0.3571 0.3641 0.3720 0.3845 0.3939 0.3970 0.3962 0.3900 0.3837 0.3759 0.3665 0.3563 0.3493 0.3438 0.3375 0.3336 0.3289 0.3218 0.3132 0.3046 0.2944 0.2843 0.2796 0.2780 0.2843 0.2968 0.3078 0.3171 0.3218 0.3242 0.3250 0.3242 0.3258 0.3289 0.3320 0.3359 0.3406 0.3453 0.3532 0.3594 0.3657 0.3727 0.3751 0.3743 0.3743 0.3712 0.3688 0.3657 0.3602 0.3532 0.3461 0.3391 0.3344 0.3320 0.3289 0.3242 0.3171 0.3093 0.3031 0.2991 0.2929 0.2866 0.2811 0.2882 0.2968 0.3054 0.3101 0.3148 0.3203 0.3297 0.3383 0.3446 0.3438 0.3414 0.3383 0.3352 0.3312 0.3258 0.3203 0.3156 0.3164 0.3179 0.3258 0.3391 0.3438 0.3485 0.3532 0.3571 0.3610 0.3673 0.3720 0.3774 0.3845 0.3915 0.4002 0.4088 0.4150 0.4229 0.4315 0.4393 0.4440 0.4518 0.4612 0.4699 0.4745 0.4753 0.4745 0.4745 0.4761 0.4816 0.4871 0.4902 0.4918 0.4918 0.4949 0.4988 0.5012 0.5051 0.5106 0.5153 0.5192 0.5239 0.5262 0.5278 0.5325 0.5364 0.5419 0.5513 0.5607 0.5685 0.5724 0.5771 0.5779 0.5779 0.5764 0.5732 0.5717 0.5701 0.5693 0.5685 0.5693 0.5709 0.5685 0.5685 0.5732 0.5764 0.5771 0.5779 0.5818 0.5826 0.5826 0.5826 0.5842 0.5873 0.5912 0.5936 0.5944 0.5928 0.5889 0.5857 0.5842 0.5826 0.5810 0.5810 0.5810 0.5826 0.5834 0.5850 0.5873 0.5873 0.5881 0.5865 0.5850 0.5842 0.5810 0.5779 0.5764 0.5779 0.5779 0.5764 0.5764 0.5795 0.5842 0.5881 0.5904 0.5904 0.5912 0.5936 0.5983 0.6038 0.6077
0.4542 0.4479 0.4424 0.4346 0.4268 0.4213 0.4150 0.4064 0.3986 0.3939 0.3939 0.3978 0.4009 0.4056 0.4103 0.4143 0.4182 0.4221 0.4229 0.4197 0.4135 0.4072 0.3994 0.3915 0.3853 0.3806 0.3790 0.3743 0.3681 0.3626 0.3555 0.3477 0.3406 0.3336 0.3250 0.3148 0.3054 0.2976 0.2913 0.2858 0.2835 0.2882 0.2960 0.3093 0.3195 0.3258 0.3305 0.3352 0.3414 0.3500 0.3563 0.3634 0.3712 0.3798 0.3868 0.3908 0.3876 0.3829 0.3774 0.3720 0.3641 0.3555 0.3477 0.3399 0.3305 0.3226 0.3171 0.3125 0.3046 0.2960 0.2882 0.2827 0.2803 0.2858 0.2937 0.3038 0.3140 0.3218 0.3297 0.3359 0.3383 0.3375 0.3344 0.3328 0.3352 0.3391 0.3461 0.3571 0.3641 0.3720 0.3798 0.3861 0.3892 0.3900 0.3868 0.3845 0.3821 0.3767 0.3704 0.3634 0.3563 0.3493 0.3438 0.3422 0.3391 0.3344 0.3265 0.3195 0.3125 0.3078 0.2991 0.2882 0.2850 0.2850 0.2921 0.2944 0.2984 0.3038 0.3101 0.3179 0.3289 0.3375 0.3375 0.3352 0.3328 0.3312 0.3242 0.3187 0.3148 0.3164 0.3195 0.3250 0.3383 0.3485 0.3524 0.3587 0.3634 0.3665 0.3688 0.3727 0.3767 0.3814 0.3876 0.3962 0.4049 0.4127 0.4221 0.4323 0.4393 0.4479 0.4534 0.4573 0.4675 0.4738 0.4777 0.4792 0.4808 0.4816 0.4847 0.4894 0.4941 0.4973 0.4973 0.4980 0.5004 0.5035 0.5051 0.5098 0.5161 0.5231 0.5294 0.5325 0.5356 0.5395 0.5435 0.5466 0.5513 0.5583 0.5670 0.5732 0.5803 0.5857 0.5873 0.5881 0.5865 0.5842 0.5810 0.5795 0.5787 0.5787 0.5787 0.5795 0.5803 0.5818 0.5842 0.5865 0.5881 0.5920 0.5928 0.5912 0.5904 0.5904 0.5920 0.5951 0.5991 0.6022 0.6045 0.6014 0.5975 0.5936 0.5920 0.5904 0.5944 0.5959 0.5951 0.5951 0.5951 0.5951 0.5967 0.5975 0.5967 0.5959 0.5967 0.5959 0.5944 0.5928 0.5928 0.5928 0.5904 0.5873 0.5873 0.5897 0.5951 0.5991 0.5983 0.5975 0.5975 0.5998 0.6053 0.6108 0.6155
0.4620 0.4565 0.4495 0.4409 0.4338 0.4252 0.4166 0.4072 0.4009 0.4017 0.4056 0.4088 0.4119 0.4174 0.4229 0.4268 0.4307 0.4330 0.4315 0.4244 0.4182 0.4096 0.4009 0.3939 0.3876 0.3821 0.3806 0.3790 0.3743 0.3673 0.3594 0.3500 0.3438 0.3383 0.3281 0.3148 0.3031 0.2960 0.2897 0.2866 0.2850 0.2874 0.2960 0.3038 0.3148 0.3250 0.3305 0.3352 0.3438 0.3516 0.3587 0.3688 0.3774 0.3837 0.3876 0.3861 0.3814 0.3743 0.3688 0.3641 0.3587 0.3540 0.3461 0.3359 0.3265 0.3164 0.3085 0.3023 0.2960 0.2913 0.2858 0.2819 0.2874 0.2937 0.3023 0.3125 0.3195 0.3258 0.3352 0.3453 0.3508 0.3485 0.3430 0.3391 0.3383 0.3406 0.3477 0.3563 0.3657 0.3759 0.3876 0.3970 0.3994 0.3986 0.3962 0.3947 0.3947 0.3900 0.3821 0.3743 0.3681 0.3618 0.3579 0.3540 0.3477 0.3422 0.3336 0.3250 0.3203 0.3140 0.3023 0.2921 0.2866 0.2858 0.2866 0.2874 0.2882 0.2897 0.2944 0.3023 0.3125 0.3203 0.3242 0.3281 0.3281 0.3250 0.3195 0.3140 0.3132 0.3148 0.3179 0.3297 0.3399 0.3493 0.3563 0.3618 0.3649 0.3681 0.3712 0.3735 0.3782 0.3829 0.3892 0.3955 0.4025 0.4135 0.4236 0.4330 0.4424 0.4518 0.4589 0.4628 0.4683 0.4730 0.4769 0.4816 0.4839 0.4855 0.4879 0.4918 0.4973 0.5012 0.5020 0.5035 0.5067 0.5090 0.5145 0.5192 0.5255 0.5325 0.5372 0.5427 0.5489 0.5529 0.5552 0.5568 0.5599 0.5654 0.5724 0.5787 0.5842 0.5889 0.5912 0.5928 0.5928 0.5904 0.5889 0.5881 0.5889 0.5889 0.5897 0.5897 0.5897 0.5912 0.5928 0.5944 0.5975 0.5998 0.6014 0.5991 0.5991 0.6006 0.6045 0.6069 0.6092 0.6124 0.6139 0.6139 0.6100 0.6061 0.6030 0.6038 0.6069 0.6085 0.6061 0.6045 0.6022 0.6030 0.6045 0.6061 0.6069 0.6085 0.6092 0.6077 0.6038 0.6022 0.6053 0.6053 0.6030 0.6014 0.6006 0.6014 0.6030 0.6061 0.6069 0.6061 0.6085 0.6108 0.6147 0.6202 0.6257
0.4706 0.4628 0.4558 0.4471 0.4370 0.4276 0.4190 0.4111 0.4072 0.4072 0.4111 0.4174 0.4236 0.4307 0.4346 0.4377 0.4401 0.4424 0.4370 0.4291 0.4205 0.4111 0.4033 0.3962 0.3900 0.3861 0.3837 0.3806 0.3759 0.3681 0.3594 0.3516 0.3446 0.3367 0.3273 0.3148 0.3031 0.2929 0.2882 0.2835 0.2835 0.2882 0.2952 0.3023 0.3109 0.3211 0.3305 0.3383 0.3453 0.3540 0.3641 0.3767 0.3876 0.3939 0.3915 0.3861 0.3774 0.3688 0.3626 0.3579 0.3532 0.3469 0.3367 0.3289 0.3211 0.3117 0.2999 0.2905 0.2874 0.2850 0.2819 0.2850 0.2937 0.3023 0.3125 0.3195 0.3258 0.3328 0.3422 0.3524 0.3571 0.3563 0.3508 0.3469 0.3461 0.3477 0.3508 0.3563 0.3641 0.3759 0.3900 0.4009 0.4072 0.4096 0.4096 0.4072 0.4056 0.4017 0.3962 0.3876 0.3790 0.3727 0.3681 0.3618 0.3547 0.3477 0.3406 0.3328 0.3265 0.3218 0.3132 0.3046 0.2999 0.2937 0.2890 0.2874 0.2850 0.2850 0.2858 0.2913 0.2999 0.3101 0.3164 0.3195 0.3195 0.3171 0.3140 0.3085 0.3070 0.3101 0.3234 0.3320 0.3399 0.3485 0.3563 0.3587 0.3610 0.3641 0.3665 0.3712 0.3759 0.3814 0.3876 0.3947 0.4041 0.4135 0.4221 0.4323 0.4417 0.4495 0.4558 0.4597 0.4644 0.4699 0.4745 0.4800 0.4847 0.4863 0.4879 0.4926 0.4973 0.5020 0.5067 0.5098 0.5129 0.5168 0.5200 0.5255 0.5309 0.5380 0.5442 0.5513 0.5560 0.5583 0.5599 0.5623 0.5654 0.5701 0.5764 0.5810 0.5842 0.5904 0.5967 0.5975 0.5967 0.5959 0.5967 0.5959 0.5959 0.5975 0.5983 0.5959 0.5959 0.5975 0.5983 0.6006 0.6045 0.6077 0.6085 0.6069 0.6069 0.6100 0.6132 0.6155 0.6179 0.6202 0.6241 0.6233 0.6218 0.6186 0.6171 0.6163 0.6163 0.6147 0.6132 0.6108 0.6116 0.6132 0.6147 0.6171 0.6186 0.6210 0.6210 0.6202 0.6210 0.6210 0.6218 0.6226 0.6218 0.6179 0.6147 0.6147 0.6139 0.6155 0.6179 0.6194 0.6233 0.6273 0.6304 0.6366 0.6421
0.4753 0.4675 0.4589 0.4495 0.4385 0.4260 0.4190 0.4127 0.4088 0.4103 0.4158 0.4252 0.4346 0.4417 0.4464 0.4487 0.4495 0.4479 0.4432 0.4370 0.4276 0.4182 0.4080 0.4002 0.3962 0.3931 0.3892 0.3829 0.3751 0.3688 0.3618 0.3547 0.3461 0.3367 0.3265 0.3156 0.3046 0.2952 0.2874 0.2835 0.2850 0.2882 0.2929 0.2991 0.3085 0.3179 0.3281 0.3375 0.3461 0.3563 0.3673 0.3790 0.3915 0.3955 0.3939 0.3868 0.3790 0.3696 0.3610 0.3540 0.3461 0.3367 0.3273 0.3203 0.3148 0.3031 0.2921 0.2835 0.2803 0.2796 0.2811 0.2866 0.2960 0.3054 0.3148 0.3226 0.3305 0.3383 0.3469 0.3602 0.3665 0.3626 0.3571 0.3555 0.3563 0.3555 0.3563 0.3579 0.3634 0.3735 0.3884 0.4002 0.4119 0.4190 0.4229 0.4205 0.4190 0.4127 0.4064 0.3970 0.3884 0.3814 0.3735 0.3649 0.3571 0.3508 0.3453 0.3399 0.3383 0.3336 0.3273 0.3203 0.3101 0.3007 0.2960 0.2929 0.2890 0.2866 0.2858 0.2890 0.2937 0.3031 0.3109 0.3117 0.3117 0.3093 0.3078 0.3054 0.3038 0.3125 0.3234 0.3328 0.3406 0.3469 0.3532 0.3547 0.3571 0.3602 0.3634 0.3673 0.3720 0.3790 0.3876 0.3970 0.4049 0.4127 0.4205 0.4283 0.4354 0.4424 0.4479 0.4534 0.4612 0.4667 0.4714 0.4769 0.4847 0.4902 0.4926 0.4957 0.4980 0.5043 0.5098 0.5137 0.5184 0.5215 0.5247 0.5301 0.5380 0.5442 0.5497 0.5568 0.5623 0.5607 0.5599 0.5630 0.5662 0.5709 0.5756 0.5795 0.5834 0.5897 0.5967 0.5991 0.5998 0.5991 0.5983 0.5983 0.5967 0.5975 0.5998 0.6014 0.6038 0.6045 0.6061 0.6085 0.6100 0.6116 0.6124 0.6132 0.6147 0.6155 0.6163 0.6202 0.6249 0.6280 0.6296 0.6304 0.6288 0.6265 0.6241 0.6233 0.6233 0.6233 0.6241 0.6226 0.6233 0.6241 0.6265 0.6280 0.6327 0.6351 0.6343 0.6327 0.6327 0.6343 0.6351 0.6351 0.6335 0.6304 0.6280 0.6257 0.6249 0.6257 0.6296 0.6343 0.6382 0.6413 0.6460 0.6507 0.6539
0.4738 0.4683 0.4597 0.4503 0.4362 0.4244 0.4174 0.4127 0.4103 0.4127 0.4205 0.4299 0.4393 0.4471 0.4534 0.4558 0.4565 0.4550 0.4526 0.4471 0.4401 0.4291 0.4182 0.4088 0.4041 0.3994 0.3931 0.3853 0.3782 0.3720 0.3657 0.3594 0.3524 0.3414 0.3312 0.3226 0.3132 0.3023 0.2913 0.2858 0.2843 0.2858 0.2874 0.2937 0.2999 0.3101 0.3242 0.3352 0.3453 0.3571 0.3696 0.3806 0.3892 0.3947 0.3931 0.3861 0.3782 0.3681 0.3594 0.3516 0.3438 0.3336 0.3226 0.3156 0.3070 0.2968 0.2874 0.2811 0.2772 0.2796 0.2843 0.2897 0.2976 0.3062 0.3140 0.3250 0.3352 0.3438 0.3563 0.3665 0.3688 0.3649 0.3618 0.3610 0.3634 0.3649 0.3657 0.3665 0.3673 0.3727 0.3837 0.3994 0.4119 0.4205 0.4260 0.4276 0.4236 0.4158 0.4080 0.3994 0.3908 0.3821 0.3727 0.3641 0.3579 0.3524 0.3477 0.3461 0.3461 0.3453 0.3414 0.3320 0.3218 0.3132 0.3062 0.3007 0.2952 0.2905 0.2882 0.2874 0.2905 0.2968 0.3031 0.3046 0.3038 0.3031 0.3023 0.3015 0.3078 0.3156 0.3265 0.3336 0.3406 0.3469 0.3500 0.3524 0.3555 0.3587 0.3626 0.3657 0.3688 0.3743 0.3845 0.3931 0.4009 0.4088 0.4182 0.4268 0.4315 0.4362 0.4417 0.4511 0.4581 0.4652 0.4691 0.4769 0.4855 0.4918 0.4965 0.5004 0.5059 0.5114 0.5168 0.5200 0.5223 0.5255 0.5301 0.5372 0.5435 0.5482 0.5544 0.5615 0.5630 0.5599 0.5568 0.5568 0.5607 0.5662 0.5709 0.5740 0.5787 0.5857 0.5928 0.5959 0.5967 0.5959 0.5944 0.5928 0.5928 0.5936 0.5983 0.6038 0.6069 0.6092 0.6124 0.6139 0.6147 0.6155 0.6171 0.6202 0.6202 0.6186 0.6202 0.6241 0.6280 0.6319 0.6351 0.6382 0.6374 0.6351 0.6312 0.6312 0.6319 0.6335 0.6343 0.6343 0.6335 0.6343 0.6366 0.6406 0.6437 0.6453 0.6476 0.6476 0.6460 0.6429 0.6421 0.6421 0.6413 0.6406 0.6382 0.6366 0.6366 0.6398 0.6437 0.6460 0.6492 0.6515 0.6547 0.6578 0.6601
0.4722 0.4644 0.4565 0.4440 0.4323 0.4236 0.4205 0.4182 0.4166 0.4197 0.4229 0.4299 0.4377 0.4456 0.4534 0.4589 0.4628 0.4628 0.4597 0.4534 0.4456 0.4393 0.4307 0.4205 0.4135 0.4088 0.4009 0.3947 0.3868 0.3790 0.3720 0.3657 0.3602 0.3485 0.3391 0.3312 0.3218 0.3109 0.3007 0.2929 0.2874 0.2874 0.2874 0.2913 0.2929 0.3007 0.3117 0.3289 0.3446 0.3571 0.3681 0.3790 0.3884 0.3908 0.3892 0.3821 0.3743 0.3657 0.3571 0.3500 0.3430 0.3336 0.3234 0.3132 0.3023 0.2937 0.2874 0.2827 0.2850 0.2897 0.2984 0.3023 0.3062 0.3140 0.3234 0.3312 0.3422 0.3532 0.3641 0.3704 0.3735 0.3712 0.3681 0.3681 0.3712 0.3751 0.3782 0.3774 0.3782 0.3814 0.3900 0.4025 0.4111 0.4190 0.4268 0.4283 0.4252 0.4158 0.4064 0.3970 0.3884 0.3814 0.3727 0.3641 0.3587 0.3555 0.3540 0.3547 0.3571 0.3555 0.3532 0.3477 0.3375 0.3258 0.3156 0.3078 0.3007 0.2929 0.2882 0.2858 0.2874 0.2929 0.2976 0.3007 0.2999 0.3023 0.3078 0.3132 0.3187 0.3258 0.3320 0.3367 0.3406 0.3446 0.3493 0.3532 0.3579 0.3626 0.3665 0.3688 0.3720 0.3767 0.3837 0.3915 0.3962 0.4049 0.4150 0.4221 0.4291 0.4346 0.4409 0.4487 0.4573 0.4620 0.4675 0.4745 0.4847 0.4926 0.4980 0.5059 0.5114 0.5145 0.5208 0.5270 0.5294 0.5341 0.5388 0.5450 0.5497 0.5536 0.5576 0.5599 0.5615 0.5583 0.5536 0.5505 0.5536 0.5568 0.5599 0.5630 0.5701 0.5779 0.5850 0.5889 0.5904 0.5904 0.5889 0.5865 0.5857 0.5889 0.5959 0.6038 0.6085 0.6116 0.6147 0.6171 0.6179 0.6171 0.6186 0.6202 0.6202 0.6202 0.6226 0.6265 0.6288 0.6319 0.6374 0.6413 0.6437 0.6429 0.6429 0.6437 0.6445 0.6453 0.6445 0.6429 0.6421 0.6437 0.6460 0.6476 0.6500 0.6531 0.6554 0.6554 0.6539 0.6523 0.6515 0.6500 0.6476 0.6468 0.6468 0.6476 0.6492 0.6531 0.6539 0.6554 0.6586 0.6617 0.6633 0.6656 0.6680
0.4683 0.4605 0.4526 0.4409 0.4299 0.4260 0.4252 0.4276 0.4268 0.4268 0.4276 0.4307 0.4354 0.4417 0.4487 0.4581 0.4636 0.4659 0.4644 0.4589 0.4534 0.4479 0.4409 0.4330 0.4276 0.4205 0.4111 0.4017 0.3947 0.3861 0.3790 0.3735 0.3681 0.3579 0.3524 0.3406 0.3305 0.3218 0.3140 0.3062 0.3031 0.2999 0.2960 0.2929 0.2913 0.2905 0.3038 0.3226 0.3399 0.3571 0.3673 0.3735 0.3829 0.3900 0.3884 0.3821 0.3735 0.3634 0.3563 0.3485 0.3414 0.3312 0.3203 0.3085 0.2999 0.2929 0.2874 0.2866 0.2921 0.3046 0.3109 0.3156 0.3211 0.3297 0.3375 0.3446 0.3555 0.3657 0.3727 0.3798 0.3814 0.3790 0.3759 0.3751 0.3790 0.3861 0.3900 0.3900 0.3884 0.3900 0.3970 0.4049 0.4135 0.4229 0.4283 0.4307 0.4252 0.4158 0.4056 0.3939 0.3861 0.3798 0.3735 0.3688 0.3657 0.3649 0.3649 0.3649 0.3665 0.3657 0.3626 0.3555 0.3461 0.3352 0.3250 0.3156 0.3070 0.2976 0.2913 0.2897 0.2897 0.2905 0.2952 0.2968 0.2999 0.3062 0.3140 0.3195 0.3258 0.3320 0.3383 0.3422 0.3438 0.3469 0.3516 0.3555 0.3594 0.3649 0.3712 0.3759 0.3790 0.3821 0.3868 0.3915 0.3978 0.4041 0.4111 0.4205 0.4276 0.4338 0.4401 0.4487 0.4589 0.4652 0.4691 0.4777 0.4871 0.4949 0.5012 0.5059 0.5106 0.5145 0.5208 0.5286 0.5333 0.5380 0.5450 0.5489 0.5529 0.5560 0.5591 0.5599 0.5599 0.5560 0.5497 0.5450 0.5435 0.5458 0.5521 0.5568 0.5654 0.5756 0.5818 0.5842 0.5842 0.5810 0.5779 0.5771 0.5803 0.5850 0.5912 0.5998 0.6077 0.6124 0.6147 0.6163 0.6147 0.6147 0.6155 0.6163 0.6155 0.6139 0.6179 0.6210 0.6249 0.6296 0.6351 0.6406 0.6445 0.6476 0.6507 0.6531 0.6539 0.6539 0.6515 0.6507 0.6507 0.6515 0.6515 0.6523 0.6539 0.6570 0.6617 0.6609 0.6594 0.6586 0.6578 0.6562 0.6554 0.6562 0.6570 0.6547 0.6554 0.6586 0.6609 0.6633 0.6672 0.6711 0.6727 0.6742 0.6758
0.4620 0.4558 0.4471 0.4370 0.4291 0.4268 0.4291 0.4323 0.4354 0.4346 0.4338 0.4338 0.4354 0.4385 0.4448 0.4534 0.4605 0.4652 0.4667 0.4644 0.4612 0.4565 0.4511 0.4464 0.4401 0.4315 0.4190 0.4088 0.4009 0.3947 0.3868 0.3814 0.3751 0.3681 0.3610 0.3540 0.3422 0.3312 0.3242 0.3203 0.3140 0.3062 0.3031 0.2999 0.2929 0.2874 0.2968 0.3109 0.3328 0.3516 0.3587 0.3673 0.3774 0.3884 0.3861 0.3814 0.3727 0.3657 0.3571 0.3469 0.3375 0.3273 0.3171 0.3062 0.2968 0.2890 0.2897 0.2937 0.3054 0.3125 0.3187 0.3265 0.3320 0.3399 0.3485 0.3571 0.3665 0.3727 0.3806 0.3868 0.3892 0.3861 0.3829 0.3837 0.3884 0.3939 0.4002 0.4017 0.4002 0.4009 0.4072 0.4150 0.4221 0.4283 0.4330 0.4291 0.4213 0.4111 0.4002 0.3915 0.3853 0.3806 0.3774 0.3759 0.3751 0.3767 0.3767 0.3782 0.3774 0.3751 0.3704 0.3634 0.3540 0.3430 0.3336 0.3265 0.3171 0.3078 0.2991 0.2944 0.2921 0.2905 0.2913 0.2944 0.3007 0.3093 0.3179 0.3242 0.3297 0.3359 0.3422 0.3446 0.3469 0.3516 0.3555 0.3587 0.3618 0.3673 0.3735 0.3782 0.3829 0.3861 0.3892 0.3939 0.3994 0.4041 0.4103 0.4182 0.4276 0.4338 0.4417 0.4534 0.4636 0.4706 0.4769 0.4855 0.4957 0.5043 0.5082 0.5114 0.5098 0.5129 0.5208 0.5270 0.5348 0.5450 0.5497 0.5513 0.5513 0.5536 0.5560 0.5560 0.5544 0.5497 0.5435 0.5411 0.5403 0.5435 0.5482 0.5544 0.5623 0.5717 0.5795 0.5787 0.5748 0.5693 0.5662 0.5685 0.5724 0.5787 0.5865 0.5944 0.6038 0.6108 0.6155 0.6116 0.6092 0.6085 0.6100 0.6092 0.6069 0.6069 0.6092 0.6139 0.6179 0.6241 0.6312 0.6390 0.6453 0.6507 0.6547 0.6570 0.6578 0.6562 0.6547 0.6539 0.6554 0.6562 0.6570 0.6570 0.6586 0.6648 0.6672 0.6672 0.6656 0.6633 0.6617 0.6617 0.6625 0.6633 0.6617 0.6601 0.6586 0.6609 0.6641 0.6672 0.6735 0.6782 0.6821 0.6813 0.6836
0.4581 0.4495 0.4417 0.4338 0.4283 0.4307 0.4370 0.4432 0.4464 0.4464 0.4440 0.4424 0.4432 0.4448 0.4495 0.4534 0.4581 0.4628 0.4659 0.4691 0.4667 0.4644 0.4605 0.4550 0.4479 0.4393 0.4276 0.4166 0.4088 0.4033 0.3947 0.3861 0.3782 0.3712 0.3649 0.3579 0.3485 0.3375 0.3328 0.3265 0.3187 0.3093 0.3038 0.3007 0.2929 0.2913 0.2976 0.3117 0.3265 0.3391 0.3508 0.3626 0.3735 0.3806 0.3829 0.3782 0.3712 0.3634 0.3540 0.3453 0.3359 0.3258 0.3140 0.3023 0.2929 0.2890 0.2913 0.3007 0.3093 0.3171 0.3265 0.3344 0.3430 0.3508 0.3594 0.3681 0.3735 0.3798 0.3861 0.3915 0.3955 0.3962 0.3955 0.3970 0.3994 0.4049 0.4096 0.4119 0.4127 0.4135 0.4158 0.4213 0.4276 0.4338 0.4323 0.4268 0.4205 0.4127 0.4033 0.3955 0.3900 0.3868 0.3837 0.3845 0.3861 0.3884 0.3892 0.3892 0.3876 0.3829 0.3790 0.3712 0.3602 0.3508 0.3453 0.3367 0.3273 0.3156 0.3062 0.2991 0.2937 0.2905 0.2897 0.2952 0.3031 0.3109 0.3195 0.3265 0.3328 0.3375 0.3438 0.3469 0.3500 0.3563 0.3641 0.3657 0.3688 0.3727 0.3759 0.3798 0.3845 0.3876 0.3908 0.3955 0.4009 0.4064 0.4119 0.4213 0.4299 0.4385 0.4503 0.4605 0.4699 0.4777 0.4839 0.4902 0.5020 0.5098 0.5129 0.5114 0.5098 0.5121 0.5192 0.5278 0.5364 0.5427 0.5466 0.5458 0.5466 0.5482 0.5482 0.5466 0.5450 0.5427 0.5372 0.5333 0.5348 0.5372 0.5411 0.5442 0.5536 0.5654 0.5732 0.5717 0.5670 0.5607 0.5591 0.5615 0.5685 0.5764 0.5850 0.5936 0.6022 0.6108 0.6077 0.6045 0.6014 0.6014 0.6014 0.6006 0.6006 0.6022 0.6053 0.6100 0.6155 0.6218 0.6304 0.6374 0.6445 0.6500 0.6539 0.6570 0.6562 0.6547 0.6531 0.6523 0.6531 0.6562 0.6586 0.6601 0.6633 0.6664 0.6688 0.6711 0.6703 0.6672 0.6656 0.6656 0.6656 0.6656 0.6633 0.6601 0.6609 0.6648 0.6672 0.6727 0.6774 0.6805 0.6829 0.6860 0.6891
0.4526 0.4440 0.4377 0.4338 0.4330 0.4393 0.4464 0.4534 0.4565 0.4565 0.4542 0.4526 0.4511 0.4518 0.4526 0.4550 0.4597 0.4652 0.4714 0.4730 0.4722 0.4699 0.4652 0.4597 0.4526 0.4424 0.4299 0.4174 0.4103 0.4033 0.3955 0.3861 0.3774 0.3704 0.3641 0.3571 0.3500 0.3422 0.3359 0.3305 0.3211 0.3125 0.3070 0.2999 0.2944 0.2937 0.3023 0.3125 0.3226 0.3352 0.3493 0.3587 0.3665 0.3743 0.3759 0.3712 0.3641 0.3579 0.3508 0.3422 0.3352 0.3226 0.3085 0.2999 0.2937 0.2913 0.2960 0.3031 0.3101 0.3211 0.3320 0.3422 0.3485 0.3579 0.3681 0.3727 0.3774 0.3837 0.3892 0.3939 0.3994 0.4041 0.4080 0.4088 0.4119 0.4150 0.4197 0.4229 0.4236 0.4236 0.4244 0.4268 0.4315 0.4346 0.4362 0.4323 0.4268 0.4197 0.4103 0.4033 0.3986 0.3955 0.3955 0.3970 0.4002 0.4017 0.4017 0.4025 0.3986 0.3931 0.3876 0.3806 0.3696 0.3602 0.3516 0.3438 0.3336 0.3242 0.3132 0.3038 0.2952 0.2890 0.2890 0.2968 0.3046 0.3093 0.3164 0.3250 0.3297 0.3367 0.3422 0.3493 0.3547 0.3602 0.3688 0.3743 0.3759 0.3767 0.3798 0.3829 0.3884 0.3915 0.3931 0.3986 0.4041 0.4088 0.4182 0.4299 0.4409 0.4495 0.4589 0.4691 0.4761 0.4824 0.4855 0.4941 0.5027 0.5106 0.5114 0.5098 0.5090 0.5145 0.5223 0.5294 0.5356 0.5395 0.5419 0.5403 0.5388 0.5380 0.5372 0.5356 0.5341 0.5301 0.5255 0.5247 0.5255 0.5294 0.5348 0.5427 0.5529 0.5623 0.5662 0.5662 0.5615 0.5576 0.5560 0.5607 0.5685 0.5795 0.5850 0.5897 0.5983 0.6030 0.6030 0.5998 0.5975 0.5944 0.5944 0.5944 0.5944 0.5959 0.5998 0.6045 0.6108 0.6202 0.6280 0.6359 0.6406 0.6460 0.6531 0.6562 0.6554 0.6539 0.6507 0.6476 0.6476 0.6507 0.6539 0.6578 0.6625 0.6656 0.6688 0.6711 0.6711 0.6656 0.6648 0.6641 0.6633 0.6625 0.6594 0.6586 0.6601 0.6633 0.6688 0.6742 0.6782 0.6829 0.6860 0.6891 0.6922
0.4487 0.4432 0.4409 0.4409 0.4440 0.4495 0.4550 0.4589 0.4620 0.4620 0.4605 0.4589 0.4558 0.4550 0.4558 0.4597 0.4652 0.4722 0.4753 0.4769 0.4761 0.4722 0.4675 0.4605 0.4503 0.4401 0.4291 0.4182 0.4096 0.4017 0.3923 0.3845 0.3782 0.3704 0.3634 0.3579 0.3524 0.3461 0.3399 0.3320 0.3250 0.3179 0.3101 0.3023 0.2937 0.2960 0.3023 0.3125 0.3211 0.3320 0.3477 0.3563 0.3626 0.3673 0.3649 0.3587 0.3532 0.3461 0.3367 0.3289 0.3211 0.3117 0.3031 0.2968 0.2937 0.2921 0.2937 0.3015 0.3125 0.3218 0.3328 0.3430 0.3532 0.3634 0.3712 0.3782 0.3837 0.3884 0.3931 0.3986 0.4041 0.4103 0.4158 0.4190 0.4221 0.4260 0.4299 0.4338 0.4354 0.4354 0.4338 0.4346 0.4370 0.4417 0.4424 0.4393 0.4346 0.4268 0.4197 0.4135 0.4096 0.4064 0.4064 0.4080 0.4096 0.4119 0.4143 0.4111 0.4064 0.4002 0.3931 0.3861 0.3790 0.3688 0.3602 0.3516 0.3430 0.3305 0.3179 0.3078 0.2991 0.2905 0.2905 0.2952 0.3015 0.3070 0.3117 0.3187 0.3265 0.3352 0.3438 0.3516 0.3587 0.3657 0.3727 0.3774 0.3798 0.3821 0.3837 0.3876 0.3939 0.3994 0.4017 0.4056 0.4127 0.4190 0.4276 0.4385 0.4432 0.4534 0.4683 0.4738 0.4777 0.4832 0.4879 0.4918 0.5004 0.5051 0.5059 0.5067 0.5074 0.5098 0.5184 0.5247 0.5294 0.5333 0.5341 0.5333 0.5309 0.5270 0.5255 0.5247 0.5215 0.5176 0.5161 0.5161 0.5192 0.5239 0.5341 0.5466 0.5536 0.5591 0.5630 0.5615 0.5568 0.5497 0.5505 0.5536 0.5599 0.5701 0.5771 0.5803 0.5936 0.6014 0.5967 0.5967 0.5936 0.5873 0.5850 0.5850 0.5865 0.5897 0.5944 0.5998 0.6092 0.6179 0.6249 0.6304 0.6351 0.6413 0.6500 0.6554 0.6539 0.6507 0.6468 0.6429 0.6421 0.6437 0.6492 0.6539 0.6594 0.6633 0.6648 0.6664 0.6641 0.6617 0.6601 0.6578 0.6570 0.6562 0.6539 0.6539 0.6554 0.6609 0.6664 0.6727 0.6782 0.6829 0.6875 0.6891 0.6899
0.4511 0.4487 0.4487 0.4495 0.4511 0.4542 0.4589 0.4644 0.4699 0.4699 0.4675 0.4636 0.4605 0.4589 0.4612 0.4652 0.4706 0.4745 0.4785 0.4824 0.4800 0.4761 0.4699 0.4589 0.4487 0.4385 0.4283 0.4166 0.4088 0.3986 0.3908 0.3845 0.3774 0.3712 0.3641 0.3587 0.3547 0.3508 0.3438 0.3336 0.3265 0.3195 0.3109 0.3015 0.2968 0.2952 0.2999 0.3140 0.3265 0.3375 0.3477 0.3563 0.3587 0.3594 0.3563 0.3477 0.3383 0.3297 0.3203 0.3140 0.3078 0.3023 0.2984 0.2960 0.2929 0.2913 0.2929 0.3015 0.3125 0.3250 0.3344 0.3461 0.3587 0.3688 0.3751 0.3798 0.3861 0.3915 0.3978 0.4041 0.4103 0.4174 0.4229 0.4276 0.4315 0.4338 0.4377 0.4417 0.4432 0.4440 0.4448 0.4440 0.4471 0.4487 0.4503 0.4495 0.4448 0.4377 0.4291 0.4229 0.4182 0.4150 0.4143 0.4174 0.4197 0.4213 0.4221 0.4174 0.4096 0.4017 0.3939 0.3884 0.3814 0.3727 0.3641 0.3563 0.3469 0.3312 0.3195 0.3117 0.3015 0.2937 0.2905 0.2921 0.2976 0.3046 0.3101 0.3156 0.3234 0.3320 0.3422 0.3532 0.3602 0.3657 0.3727 0.3782 0.3821 0.3845 0.3868 0.3915 0.3978 0.4041 0.4096 0.4143 0.4182 0.4252 0.4338 0.4393 0.4448 0.4550 0.4652 0.4730 0.4745 0.4769 0.4808 0.4855 0.4918 0.4980 0.4988 0.4988 0.5004 0.5059 0.5129 0.5184 0.5200 0.5223 0.5262 0.5286 0.5255 0.5200 0.5161 0.5129 0.5098 0.5098 0.5106 0.5129 0.5168 0.5223 0.5286 0.5403 0.5482 0.5513 0.5513 0.5513 0.5474 0.5442 0.5450 0.5505 0.5576 0.5638 0.5693 0.5748 0.5842 0.5904 0.5912 0.5873 0.5779 0.5724 0.5717 0.5732 0.5764 0.5818 0.5904 0.5983 0.6053 0.6132 0.6186 0.6233 0.6296 0.6366 0.6445 0.6507 0.6500 0.6476 0.6437 0.6382 0.6343 0.6390 0.6445 0.6500 0.6554 0.6594 0.6617 0.6617 0.6609 0.6586 0.6547 0.6507 0.6468 0.6445 0.6445 0.6460 0.6492 0.6539 0.6609 0.6664 0.6727 0.6789 0.6821 0.6844 0.6868
0.4550 0.4550 0.4558 0.4558 0.4550 0.4558 0.4605 0.4699 0.4761 0.4785 0.4769 0.4714 0.4683 0.4683 0.4691 0.4722 0.4753 0.4800 0.4847 0.4871 0.4847 0.4792 0.4699 0.4589 0.4487 0.4417 0.4307 0.4174 0.4064 0.3978 0.3915 0.3845 0.3774 0.3704 0.3649 0.3602 0.3563 0.3516 0.3446 0.3344 0.3265 0.3187 0.3117 0.3038 0.2976 0.2952 0.3054 0.3211 0.3250 0.3328 0.3461 0.3532 0.3547 0.3547 0.3477 0.3399 0.3297 0.3195 0.3101 0.3015 0.2984 0.2984 0.2984 0.2984 0.2960 0.2944 0.2976 0.3038 0.3171 0.3242 0.3336 0.3477 0.3587 0.3673 0.3720 0.3782 0.3861 0.3923 0.4002 0.4072 0.4135 0.4197 0.4260 0.4307 0.4354 0.4401 0.4448 0.4487 0.4526 0.4565 0.4573 0.4589 0.4605 0.4620 0.4636 0.4628 0.4573 0.4503 0.4424 0.4346 0.4291 0.4260 0.4276 0.4283 0.4299 0.4299 0.4260 0.4190 0.4103 0.4025 0.3931 0.3853 0.3782 0.3688 0.3610 0.3532 0.3414 0.3273 0.3187 0.3109 0.3015 0.2929 0.2905 0.2905 0.2929 0.2991 0.3054 0.3125 0.3203 0.3281 0.3359 0.3461 0.3555 0.3634 0.3688 0.3727 0.3767 0.3814 0.3868 0.3931 0.3970 0.4009 0.4064 0.4119 0.4166 0.4205 0.4268 0.4346 0.4424 0.4511 0.4605 0.4659 0.4683 0.4699 0.4706 0.4745 0.4808 0.4879 0.4910 0.4918 0.4926 0.5004 0.5121 0.5153 0.5145 0.5153 0.5208 0.5208 0.5176 0.5106 0.5051 0.5012 0.5027 0.5059 0.5114 0.5161 0.5200 0.5231 0.5317 0.5372 0.5419 0.5435 0.5450 0.5442 0.5442 0.5442 0.5458 0.5529 0.5583 0.5599 0.5630 0.5677 0.5764 0.5818 0.5834 0.5787 0.5701 0.5630 0.5568 0.5591 0.5638 0.5709 0.5795 0.5889 0.5998 0.6053 0.6092 0.6171 0.6273 0.6335 0.6390 0.6437 0.6468 0.6429 0.6374 0.6319 0.6319 0.6351 0.6406 0.6468 0.6523 0.6578 0.6594 0.6594 0.6586 0.6554 0.6507 0.6453 0.6406 0.6390 0.6382 0.6406 0.6453 0.6500 0.6562 0.6617 0.6664 0.6711 0.6750 0.6782 0.6821
0.4612 0.4612 0.4628 0.4628 0.4612 0.4605 0.4652 0.4706 0.4792 0.4832 0.4824 0.4808 0.4792 0.4785 0.4785 0.4808 0.4855 0.4894 0.4918 0.4918 0.4886 0.4824 0.4738 0.4644 0.4550 0.4456 0.4346 0.4229 0.4111 0.4002 0.3931 0.3861 0.3782 0.3712 0.3665 0.3634 0.3579 0.3524 0.3453 0.3359 0.3265 0.3187 0.3109 0.3031 0.2999 0.3046 0.3187 0.3242 0.3258 0.3312 0.3485 0.3571 0.3547 0.3469 0.3391 0.3289 0.3211 0.3132 0.3031 0.2976 0.2968 0.2999 0.3031 0.3046 0.3054 0.3062 0.3093 0.3156 0.3218 0.3289 0.3359 0.3453 0.3547 0.3610 0.3696 0.3767 0.3853 0.3939 0.4009 0.4072 0.4127 0.4190 0.4260 0.4323 0.4377 0.4448 0.4511 0.4589 0.4644 0.4675 0.4699 0.4730 0.4753 0.4761 0.4753 0.4730 0.4691 0.4644 0.4558 0.4479 0.4448 0.4440 0.4432 0.4417 0.4393 0.4346 0.4252 0.4166 0.4088 0.4017 0.3923 0.3829 0.3727 0.3634 0.3532 0.3453 0.3352 0.3250 0.3179 0.3093 0.2991 0.2952 0.2929 0.2905 0.2921 0.2960 0.2999 0.3093 0.3171 0.3242 0.3328 0.3430 0.3532 0.3594 0.3657 0.3704 0.3735 0.3782 0.3853 0.3884 0.3908 0.3955 0.4002 0.4049 0.4088 0.4143 0.4213 0.4276 0.4362 0.4456 0.4503 0.4565 0.4620 0.4628 0.4644 0.4675 0.4738 0.4800 0.4855 0.4855 0.4855 0.4918 0.5027 0.5067 0.5074 0.5098 0.5129 0.5145 0.5082 0.5020 0.4973 0.4965 0.4996 0.5082 0.5145 0.5168 0.5161 0.5200 0.5239 0.5301 0.5333 0.5333 0.5317 0.5356 0.5388 0.5388 0.5427 0.5489 0.5521 0.5521 0.5536 0.5607 0.5693 0.5764 0.5787 0.5709 0.5630 0.5560 0.5521 0.5521 0.5544 0.5615 0.5701 0.5810 0.5897 0.5951 0.5983 0.6069 0.6179 0.6249 0.6304 0.6359 0.6398 0.6366 0.6312 0.6280 0.6280 0.6319 0.6390 0.6445 0.6515 0.6554 0.6578 0.6578 0.6570 0.6547 0.6507 0.6468 0.6421 0.6374 0.6359 0.6382 0.6421 0.6484 0.6547 0.6609 0.6664 0.6695 0.6719 0.6750 0.6766
0.4683 0.4699 0.4714 0.4730 0.4691 0.4683 0.4699 0.4745 0.4792 0.4832 0.4855 0.4855 0.4855 0.4847 0.4847 0.4879 0.4941 0.4965 0.4980 0.4973 0.4926 0.4863 0.4800 0.4714 0.4605 0.4503 0.4417 0.4307 0.4205 0.4103 0.4002 0.3915 0.3845 0.3782 0.3727 0.3681 0.3610 0.3555 0.3461 0.3344 0.3250 0.3171 0.3109 0.3054 0.3054 0.3109 0.3187 0.3258 0.3312 0.3406 0.3508 0.3571 0.3485 0.3391 0.3297 0.3242 0.3164 0.3070 0.3038 0.3038 0.3078 0.3117 0.3148 0.3164 0.3148 0.3156 0.3179 0.3226 0.3289 0.3367 0.3430 0.3485 0.3540 0.3602 0.3673 0.3767 0.3853 0.3939 0.4002 0.4064 0.4127 0.4197 0.4283 0.4362 0.4424 0.4495 0.4573 0.4667 0.4722 0.4769 0.4816 0.4847 0.4863 0.4847 0.4839 0.4824 0.4824 0.4777 0.4699 0.4628 0.4581 0.4573 0.4550 0.4511 0.4464 0.4370 0.4260 0.4158 0.4072 0.3994 0.3915 0.3798 0.3696 0.3602 0.3485 0.3391 0.3305 0.3242 0.3195 0.3109 0.3070 0.3023 0.3007 0.2991 0.2976 0.2968 0.2991 0.3070 0.3171 0.3242 0.3312 0.3430 0.3524 0.3587 0.3626 0.3681 0.3727 0.3751 0.3782 0.3814 0.3837 0.3884 0.3947 0.3962 0.4017 0.4103 0.4182 0.4260 0.4338 0.4370 0.4409 0.4456 0.4495 0.4534 0.4565 0.4605 0.4652 0.4691 0.4691 0.4730 0.4753 0.4832 0.4902 0.4965 0.4996 0.5012 0.5027 0.5020 0.4988 0.4933 0.4918 0.4910 0.4949 0.5027 0.5074 0.5098 0.5114 0.5137 0.5176 0.5192 0.5192 0.5192 0.5208 0.5239 0.5270 0.5278 0.5294 0.5356 0.5388 0.5395 0.5419 0.5489 0.5576 0.5662 0.5662 0.5623 0.5568 0.5497 0.5442 0.5450 0.5482 0.5552 0.5630 0.5724 0.5818 0.5850 0.5904 0.5983 0.6077 0.6171 0.6218 0.6273 0.6304 0.6319 0.6280 0.6233 0.6210 0.6241 0.6312 0.6398 0.6468 0.6515 0.6547 0.6570 0.6570 0.6539 0.6507 0.6484 0.6445 0.6390 0.6359 0.6359 0.6406 0.6460 0.6523 0.6601 0.6648 0.6695 0.6719 0.6719 0.6711
0.4745 0.4769 0.4808 0.4808 0.4769 0.4730 0.4745 0.4769 0.4808 0.4839 0.4879 0.4894 0.4894 0.4894 0.4910 0.4949 0.4980 0.5020 0.5027 0.4996 0.4933 0.4879 0.4832 0.4769 0.4675 0.4597 0.4526 0.4424 0.4323 0.4197 0.4072 0.3994 0.3939 0.3884 0.3821 0.3751 0.3657 0.3563 0.3453 0.3336 0.3234 0.3164 0.3078 0.3038 0.3046 0.3140 0.3242 0.3312 0.3367 0.3422 0.3493 0.3493 0.3453 0.3383 0.3312 0.3226 0.3117 0.3070 0.3070 0.3156 0.3218 0.3242 0.3258 0.3250 0.3250 0.3258 0.3273 0.3305 0.3359 0.3422 0.3485 0.3532 0.3579 0.3626 0.3688 0.3751 0.3829 0.3908 0.3994 0.4072 0.4150 0.4236 0.4323 0.4409 0.4487 0.4558 0.4644 0.4722 0.4792 0.4847 0.4894 0.4941 0.4965 0.4949 0.4933 0.4941 0.4941 0.4941 0.4863 0.4785 0.4738 0.4691 0.4652 0.4581 0.4495 0.4401 0.4276 0.4174 0.4033 0.3955 0.3861 0.3759 0.3681 0.3579 0.3453 0.3383 0.3336 0.3305 0.3265 0.3226 0.3179 0.3125 0.3093 0.3062 0.3015 0.2999 0.2999 0.3038 0.3132 0.3226 0.3312 0.3414 0.3508 0.3540 0.3579 0.3626 0.3681 0.3704 0.3727 0.3751 0.3774 0.3814 0.3861 0.3892 0.3939 0.4041 0.4103 0.4158 0.4236 0.4299 0.4346 0.4354 0.4370 0.4393 0.4448 0.4503 0.4558 0.4542 0.4542 0.4565 0.4636 0.4706 0.4777 0.4839 0.4879 0.4886 0.4910 0.4926 0.4886 0.4871 0.4863 0.4871 0.4918 0.4965 0.4988 0.4996 0.5020 0.5059 0.5067 0.5067 0.5051 0.5059 0.5090 0.5145 0.5184 0.5200 0.5223 0.5262 0.5309 0.5341 0.5356 0.5372 0.5466 0.5560 0.5576 0.5544 0.5458 0.5341 0.5325 0.5317 0.5356 0.5466 0.5560 0.5646 0.5717 0.5787 0.5857 0.5936 0.6022 0.6116 0.6179 0.6241 0.6288 0.6280 0.6226 0.6171 0.6139 0.6155 0.6226 0.6288 0.6359 0.6406 0.6468 0.6523 0.6515 0.6507 0.6492 0.6460 0.6421 0.6374 0.6327 0.6335 0.6374 0.6421 0.6476 0.6539 0.6609 0.6648 0.6680 0.6672 0.6648
0.4800 0.4824 0.4863 0.4871 0.4832 0.4785 0.4777 0.4808 0.4832 0.4879 0.4933 0.4973 0.4980 0.4980 0.4988 0.5020 0.5051 0.5067 0.5043 0.5004 0.4965 0.4918 0.4871 0.4839 0.4792 0.4714 0.4620 0.4526 0.4393 0.4268 0.4174 0.4088 0.4025 0.3962 0.3884 0.3798 0.3688 0.3571 0.3422 0.3305 0.3211 0.3117 0.3046 0.2999 0.3054 0.3171 0.3289 0.3367 0.3430 0.3461 0.3493 0.3516 0.3477 0.3399 0.3312 0.3195 0.3117 0.3078 0.3132 0.3211 0.3265 0.3297 0.3312 0.3312 0.3312 0.3320 0.3336 0.3391 0.3453 0.3516 0.3555 0.3594 0.3634 0.3681 0.3735 0.3782 0.3821 0.3892 0.3978 0.4072 0.4166 0.4244 0.4330 0.4432 0.4526 0.4628 0.4730 0.4824 0.4871 0.4933 0.5004 0.5051 0.5082 0.5090 0.5090 0.5043 0.5027 0.4996 0.4949 0.4871 0.4824 0.4792 0.4745 0.4683 0.4558 0.4440 0.4323 0.4205 0.4056 0.3939 0.3845 0.3751 0.3704 0.3626 0.3540 0.3485 0.3461 0.3430 0.3391 0.3344 0.3297 0.3234 0.3187 0.3109 0.3046 0.3007 0.2991 0.3023 0.3101 0.3211 0.3289 0.3375 0.3446 0.3500 0.3532 0.3594 0.3626 0.3649 0.3673 0.3696 0.3727 0.3767 0.3806 0.3853 0.3908 0.3962 0.4041 0.4103 0.4158 0.4221 0.4252 0.4283 0.4276 0.4299 0.4362 0.4432 0.4440 0.4440 0.4432 0.4448 0.4526 0.4612 0.4675 0.4730 0.4761 0.4808 0.4816 0.4816 0.4808 0.4808 0.4808 0.4816 0.4863 0.4918 0.4918 0.4910 0.4918 0.4949 0.4965 0.4918 0.4918 0.4933 0.4973 0.5027 0.5082 0.5121 0.5145 0.5168 0.5176 0.5208 0.5247 0.5270 0.5372 0.5497 0.5497 0.5458 0.5372 0.5294 0.5262 0.5255 0.5333 0.5403 0.5474 0.5529 0.5607 0.5677 0.5771 0.5873 0.5975 0.6069 0.6124 0.6155 0.6186 0.6179 0.6124 0.6061 0.6038 0.6077 0.6139 0.6202 0.6249 0.6343 0.6421 0.6445 0.6421 0.6398 0.6413 0.6398 0.6351 0.6312 0.6280 0.6280 0.6319 0.6374 0.6429 0.6492 0.6547 0.6570 0.6617 0.6609 0.6570
0.4902 0.4918 0.4933 0.4941 0.4902 0.4855 0.4839 0.4847 0.4879 0.4926 0.4980 0.5012 0.5027 0.5043 0.5067 0.5098 0.5114 0.5121 0.5114 0.5067 0.5035 0.4988 0.4941 0.4910 0.4871 0.4824 0.4722 0.4612 0.4487 0.4370 0.4283 0.4190 0.4111 0.4033 0.3955 0.3845 0.3727 0.3587 0.3438 0.3320 0.3218 0.3125 0.3038 0.3023 0.3070 0.3140 0.3265 0.3399 0.3461 0.3493 0.3524 0.3524 0.3461 0.3391 0.3281 0.3171 0.3109 0.3117 0.3164 0.3226 0.3297 0.3344 0.3375 0.3375 0.3383 0.3399 0.3453 0.3493 0.3547 0.3602 0.3649 0.3696 0.3720 0.3759 0.3821 0.3845 0.3861 0.3892 0.3962 0.4056 0.4143 0.4236 0.4338 0.4456 0.4581 0.4714 0.4816 0.4863 0.4933 0.5027 0.5074 0.5121 0.5145 0.5161 0.5145 0.5114 0.5059 0.5004 0.4933 0.4879 0.4839 0.4808 0.4753 0.4691 0.4573 0.4464 0.4354 0.4229 0.4096 0.3978 0.3868 0.3798 0.3790 0.3759 0.3704 0.3681 0.3626 0.3587 0.3540 0.3469 0.3406 0.3344 0.3281 0.3195 0.3117 0.3031 0.3007 0.2999 0.3062 0.3156 0.3258 0.3328 0.3383 0.3446 0.3493 0.3532 0.3571 0.3579 0.3602 0.3641 0.3704 0.3759 0.3814 0.3861 0.3900 0.3947 0.3994 0.4017 0.4033 0.4049 0.4119 0.4190 0.4190 0.4213 0.4291 0.4315 0.4323 0.4330 0.4346 0.4377 0.4440 0.4503 0.4581 0.4644 0.4683 0.4730 0.4745 0.4753 0.4745 0.4745 0.4730 0.4738 0.4792 0.4824 0.4839 0.4839 0.4847 0.4863 0.4839 0.4824 0.4808 0.4824 0.4871 0.4918 0.4957 0.4980 0.5004 0.5004 0.5012 0.5035 0.5082 0.5129 0.5176 0.5286 0.5356 0.5309 0.5262 0.5223 0.5200 0.5215 0.5262 0.5348 0.5395 0.5450 0.5489 0.5560 0.5654 0.5803 0.5912 0.5991 0.6045 0.6077 0.6100 0.6085 0.6006 0.5944 0.5936 0.5967 0.6030 0.6100 0.6179 0.6273 0.6327 0.6312 0.6280 0.6288 0.6296 0.6288 0.6265 0.6241 0.6218 0.6226 0.6257 0.6319 0.6366 0.6413 0.6453 0.6492 0.6523 0.6547 0.6500
0.4988 0.4996 0.5004 0.4996 0.4957 0.4910 0.4902 0.4918 0.4957 0.4996 0.5027 0.5059 0.5098 0.5121 0.5145 0.5153 0.5153 0.5161 0.5137 0.5114 0.5059 0.5012 0.4980 0.4949 0.4918 0.4871 0.4792 0.4667 0.4550 0.4440 0.4354 0.4260 0.4158 0.4064 0.3978 0.3868 0.3720 0.3587 0.3485 0.3391 0.3273 0.3148 0.3070 0.3015 0.3062 0.3117 0.3211 0.3336 0.3438 0.3540 0.3563 0.3516 0.3446 0.3344 0.3242 0.3148 0.3109 0.3140 0.3203 0.3265 0.3344 0.3422 0.3446 0.3485 0.3508 0.3532 0.3555 0.3602 0.3649 0.3712 0.3782 0.3845 0.3861 0.3876 0.3908 0.3931 0.3931 0.3947 0.3978 0.4041 0.4143 0.4260 0.4385 0.4503 0.4628 0.4761 0.4839 0.4910 0.4996 0.5051 0.5090 0.5114 0.5129 0.5129 0.5098 0.5051 0.5004 0.4957 0.4910 0.4847 0.4808 0.4761 0.4699 0.4636 0.4526 0.4424 0.4323 0.4213 0.4111 0.3994 0.3931 0.3915 0.3908 0.3884 0.3876 0.3853 0.3767 0.3704 0.3657 0.3571 0.3485 0.3414 0.3328 0.3258 0.3171 0.3078 0.3007 0.2991 0.3023 0.3109 0.3203 0.3289 0.3352 0.3391 0.3430 0.3469 0.3485 0.3508 0.3540 0.3587 0.3665 0.3759 0.3814 0.3868 0.3923 0.3939 0.3955 0.3962 0.3970 0.3978 0.4009 0.4056 0.4080 0.4096 0.4135 0.4158 0.4166 0.4197 0.4252 0.4315 0.4362 0.4417 0.4471 0.4534 0.4597 0.4644 0.4675 0.4675 0.4691 0.4659 0.4628 0.4644 0.4691 0.4722 0.4738 0.4753 0.4769 0.4753 0.4738 0.4722 0.4699 0.4706 0.4738 0.4761 0.4792 0.4847 0.4886 0.4894 0.4902 0.4926 0.4957 0.5020 0.5090 0.5137 0.5168 0.5161 0.5137 0.5106 0.5082 0.5090 0.5121 0.5200 0.5294 0.5348 0.5427 0.5497 0.5576 0.5724 0.5873 0.5951 0.5991 0.6006 0.6006 0.5967 0.5912 0.5842 0.5818 0.5857 0.5944 0.6038 0.6132 0.6218 0.6241 0.6226 0.6194 0.6202 0.6218 0.6233 0.6226 0.6194 0.6155 0.6163 0.6194 0.6241 0.6296 0.6351 0.6398 0.6429 0.6460 0.6453 0.6437
0.5043 0.5043 0.5051 0.5051 0.5027 0.4988 0.4980 0.4988 0.5020 0.5067 0.5129 0.5161 0.5200 0.5231 0.5215 0.5192 0.5184 0.5176 0.5168 0.5106 0.5051 0.4988 0.4949 0.4926 0.4910 0.4871 0.4792 0.4699 0.4581 0.4471 0.4377 0.4276 0.4182 0.4072 0.3970 0.3853 0.3720 0.3618 0.3508 0.3406 0.3297 0.3179 0.3085 0.3038 0.3054 0.3101 0.3156 0.3297 0.3477 0.3571 0.3610 0.3579 0.3469 0.3336 0.3218 0.3132 0.3109 0.3156 0.3250 0.3344 0.3422 0.3453 0.3493 0.3540 0.3571 0.3602 0.3634 0.3673 0.3727 0.3806 0.3915 0.3978 0.4009 0.4009 0.3994 0.4002 0.4002 0.4002 0.4009 0.4096 0.4205 0.4307 0.4393 0.4503 0.4620 0.4730 0.4832 0.4902 0.4980 0.5027 0.5067 0.5082 0.5090 0.5067 0.5027 0.4996 0.4949 0.4910 0.4863 0.4785 0.4730 0.4667 0.4612 0.4526 0.4440 0.4346 0.4268 0.4205 0.4135 0.4080 0.4041 0.4064 0.4056 0.4049 0.4009 0.3947 0.3861 0.3774 0.3696 0.3610 0.3524 0.3430 0.3344 0.3281 0.3195 0.3093 0.3007 0.2999 0.3031 0.3117 0.3203 0.3289 0.3305 0.3344 0.3375 0.3406 0.3438 0.3461 0.3540 0.3594 0.3665 0.3751 0.3829 0.3892 0.3915 0.3923 0.3931 0.3931 0.3931 0.3939 0.3970 0.3986 0.3986 0.4009 0.4049 0.4072 0.4088 0.4096 0.4127 0.4190 0.4260 0.4338 0.4424 0.4471 0.4503 0.4558 0.4605 0.4605 0.4558 0.4518 0.4518 0.4550 0.4605 0.4628 0.4644 0.4652 0.4659 0.4644 0.4612 0.4612 0.4605 0.4589 0.4620 0.4659 0.4699 0.4730 0.4753 0.4761 0.4769 0.4785 0.4816 0.4910 0.4996 0.5035 0.5051 0.5059 0.5043 0.4980 0.4949 0.4988 0.5035 0.5098 0.5184 0.5262 0.5341 0.5474 0.5576 0.5677 0.5826 0.5904 0.5944 0.5936 0.5897 0.5842 0.5771 0.5740 0.5732 0.5748 0.5834 0.5967 0.6077 0.6163 0.6210 0.6179 0.6139 0.6100 0.6139 0.6179 0.6179 0.6132 0.6100 0.6085 0.6139 0.6202 0.6273 0.6327 0.6382 0.6437 0.6437 0.6406 0.6343
0.5137 0.5121 0.5098 0.5082 0.5067 0.5051 0.5035 0.5043 0.5090 0.5168 0.5208 0.5247 0.5278 0.5301 0.5286 0.5255 0.5215 0.5200 0.5145 0.5090 0.5012 0.4941 0.4886 0.4855 0.4824 0.4792 0.4738 0.4644 0.4573 0.4471 0.4354 0.4252 0.4150 0.4041 0.3947 0.3845 0.3743 0.3634 0.3516 0.3399 0.3273 0.3156 0.3093 0.3078 0.3093 0.3132 0.3195 0.3367 0.3508 0.3594 0.3641 0.3571 0.3461 0.3320 0.3226 0.3164 0.3148 0.3203 0.3289 0.3422 0.3469 0.3500 0.3524 0.3555 0.3587 0.3626 0.3665 0.3712 0.3782 0.3868 0.3962 0.4056 0.4119 0.4127 0.4119 0.4111 0.4111 0.4103 0.4111 0.4166 0.4252 0.4323 0.4409 0.4526 0.4636 0.4738 0.4832 0.4894 0.4941 0.4988 0.5035 0.5059 0.5051 0.5027 0.4988 0.4941 0.4902 0.4847 0.4785 0.4706 0.4636 0.4573 0.4503 0.4448 0.4370 0.4299 0.4229 0.4229 0.4221 0.4213 0.4229 0.4221 0.4221 0.4166 0.4088 0.4009 0.3931 0.3829 0.3735 0.3657 0.3547 0.3438 0.3367 0.3289 0.3203 0.3085 0.3023 0.3007 0.3062 0.3140 0.3226 0.3250 0.3258 0.3273 0.3305 0.3359 0.3406 0.3477 0.3571 0.3649 0.3696 0.3759 0.3837 0.3868 0.3876 0.3876 0.3868 0.3868 0.3884 0.3908 0.3923 0.3931 0.3931 0.3915 0.3939 0.3994 0.4025 0.4033 0.4056 0.4096 0.4166 0.4229 0.4291 0.4377 0.4440 0.4487 0.4511 0.4495 0.4440 0.4409 0.4424 0.4487 0.4526 0.4526 0.4518 0.4550 0.4558 0.4534 0.4503 0.4495 0.4511 0.4542 0.4573 0.4612 0.4620 0.4628 0.4628 0.4620 0.4620 0.4628 0.4691 0.4785 0.4863 0.4894 0.4910 0.4918 0.4910 0.4894 0.4910 0.4973 0.5035 0.5074 0.5176 0.5286 0.5356 0.5427 0.5521 0.5638 0.5724 0.5795 0.5873 0.5889 0.5834 0.5732 0.5670 0.5623 0.5623 0.5654 0.5740 0.5873 0.5983 0.6085 0.6132 0.6139 0.6069 0.6038 0.6053 0.6085 0.6077 0.6053 0.6006 0.6030 0.6092 0.6171 0.6257 0.6319 0.6359 0.6374 0.6366 0.6319 0.6280
0.5208 0.5192 0.5168 0.5161 0.5153 0.5145 0.5129 0.5145 0.5200 0.5239 0.5278 0.5309 0.5341 0.5348 0.5333 0.5278 0.5231 0.5168 0.5106 0.5027 0.4957 0.4879 0.4824 0.4777 0.4722 0.4683 0.4636 0.4550 0.4479 0.4409 0.4315 0.4213 0.4103 0.4009 0.3931 0.3837 0.3720 0.3610 0.3485 0.3352 0.3218 0.3140 0.3093 0.3085 0.3125 0.3203 0.3297 0.3399 0.3508 0.3618 0.3602 0.3540 0.3446 0.3336 0.3242 0.3203 0.3203 0.3273 0.3383 0.3446 0.3493 0.3516 0.3540 0.3571 0.3618 0.3657 0.3696 0.3751 0.3837 0.3923 0.4017 0.4103 0.4174 0.4205 0.4213 0.4213 0.4221 0.4229 0.4252 0.4307 0.4323 0.4354 0.4432 0.4558 0.4675 0.4777 0.4824 0.4847 0.4894 0.4957 0.5027 0.5043 0.5035 0.4996 0.4933 0.4886 0.4832 0.4769 0.4683 0.4612 0.4550 0.4487 0.4456 0.4409 0.4346 0.4307 0.4299 0.4299 0.4307 0.4323 0.4323 0.4299 0.4268 0.4229 0.4150 0.4072 0.3994 0.3900 0.3782 0.3681 0.3555 0.3438 0.3367 0.3281 0.3195 0.3125 0.3046 0.3007 0.3054 0.3156 0.3203 0.3218 0.3226 0.3242 0.3273 0.3328 0.3399 0.3485 0.3610 0.3673 0.3720 0.3767 0.3790 0.3790 0.3782 0.3790 0.3790 0.3806 0.3821 0.3837 0.3845 0.3853 0.3861 0.3861 0.3892 0.3931 0.3955 0.3970 0.3994 0.4033 0.4080 0.4127 0.4190 0.4260 0.4323 0.4385 0.4385 0.4346 0.4315 0.4307 0.4323 0.4354 0.4385 0.4370 0.4393 0.4401 0.4417 0.4393 0.4370 0.4370 0.4393 0.4432 0.4495 0.4526 0.4542 0.4558 0.4550 0.4534 0.4534 0.4565 0.4597 0.4652 0.4730 0.4792 0.4832 0.4855 0.4855 0.4839 0.4886 0.4957 0.4996 0.5059 0.5161 0.5262 0.5325 0.5380 0.5466 0.5521 0.5544 0.5607 0.5717 0.5787 0.5709 0.5599 0.5489 0.5450 0.5489 0.5552 0.5638 0.5748 0.5889 0.5998 0.6069 0.6100 0.6061 0.6006 0.5967 0.5967 0.5967 0.5928 0.5928 0.5951 0.6022 0.6139 0.6233 0.6280 0.6304 0.6312 0.6296 0.6257 0.6218
0.5270 0.5278 0.5278 0.5247 0.5239 0.5223 0.5223 0.5200 0.5239 0.5286 0.5309 0.5356 0.5388 0.5388 0.5356 0.5294 0.5239 0.5176 0.5090 0.4988 0.4902 0.4839 0.4769 0.4691 0.4628 0.4573 0.4518 0.4456 0.4401 0.4330 0.4260 0.4166 0.4080 0.4002 0.3908 0.3806 0.3696 0.3587 0.3469 0.3344 0.3195 0.3117 0.3078 0.3093 0.3156 0.3250 0.3359 0.3477 0.3626 0.3657 0.3641 0.3587 0.3469 0.3352 0.3258 0.3211 0.3218 0.3281 0.3391 0.3469 0.3516 0.3547 0.3587 0.3641 0.3688 0.3712 0.3751 0.3814 0.3900 0.4002 0.4072 0.4166 0.4229 0.4268 0.4291 0.4315 0.4346 0.4385 0.4401 0.4424 0.4432 0.4432 0.4518 0.4620 0.4722 0.4792 0.4832 0.4832 0.4886 0.4980 0.5035 0.5051 0.5027 0.4973 0.4902 0.4839 0.4769 0.4699 0.4620 0.4558 0.4511 0.4440 0.4440 0.4409 0.4385 0.4370 0.4377 0.4385 0.4393 0.4409 0.4401 0.4362 0.4315 0.4268 0.4190 0.4103 0.4025 0.3923 0.3806 0.3696 0.3587 0.3485 0.3414 0.3297 0.3187 0.3125 0.3046 0.2999 0.3046 0.3117 0.3156 0.3164 0.3187 0.3226 0.3281 0.3336 0.3391 0.3469 0.3571 0.3665 0.3727 0.3751 0.3743 0.3735 0.3735 0.3743 0.3727 0.3727 0.3735 0.3767 0.3782 0.3790 0.3806 0.3814 0.3837 0.3876 0.3900 0.3923 0.3931 0.3939 0.3986 0.4033 0.4080 0.4143 0.4205 0.4252 0.4268 0.4260 0.4236 0.4221 0.4244 0.4252 0.4260 0.4260 0.4268 0.4268 0.4268 0.4268 0.4291 0.4299 0.4299 0.4323 0.4370 0.4401 0.4385 0.4409 0.4424 0.4424 0.4440 0.4464 0.4479 0.4526 0.4589 0.4652 0.4738 0.4777 0.4753 0.4753 0.4777 0.4824 0.4902 0.4980 0.5059 0.5153 0.5255 0.5333 0.5380 0.5427 0.5466 0.5529 0.5607 0.5615 0.5568 0.5458 0.5372 0.5341 0.5356 0.5458 0.5576 0.5701 0.5818 0.5928 0.6022 0.6053 0.6030 0.5959 0.5889 0.5850 0.5803 0.5795 0.5818 0.5881 0.5975 0.6085 0.6163 0.6210 0.6241 0.6241 0.6226 0.6194 0.6163
0.5325 0.5348 0.5348 0.5333 0.5325 0.5317 0.5301 0.5270 0.5270 0.5301 0.5341 0.5372 0.5388 0.5380 0.5341 0.5294 0.5239 0.5168 0.5074 0.4988 0.4894 0.4800 0.4714 0.4644 0.4565 0.4495 0.4424 0.4362 0.4299 0.4236 0.4174 0.4111 0.4033 0.3962 0.3876 0.3790 0.3688 0.3587 0.3477 0.3336 0.3211 0.3125 0.3101 0.3093 0.3132 0.3242 0.3352 0.3461 0.3602 0.3712 0.3681 0.3610 0.3508 0.3399 0.3305 0.3226 0.3203 0.3289 0.3399 0.3500 0.3547 0.3610 0.3681 0.3751 0.3806 0.3837 0.3861 0.3923 0.4002 0.4080 0.4166 0.4252 0.4330 0.4401 0.4440 0.4479 0.4526 0.4550 0.4542 0.4534 0.4526 0.4518 0.4573 0.4652 0.4722 0.4777 0.4824 0.4863 0.4926 0.5012 0.5043 0.5027 0.4988 0.4949 0.4879 0.4792 0.4714 0.4659 0.4589 0.4550 0.4518 0.4495 0.4487 0.4479 0.4456 0.4424 0.4440 0.4456 0.4479 0.4503 0.4495 0.4471 0.4401 0.4315 0.4244 0.4135 0.4033 0.3915 0.3806 0.3720 0.3657 0.3594 0.3500 0.3383 0.3258 0.3148 0.3070 0.3015 0.3015 0.3038 0.3046 0.3070 0.3117 0.3195 0.3258 0.3328 0.3391 0.3446 0.3524 0.3610 0.3665 0.3681 0.3681 0.3673 0.3681 0.3673 0.3665 0.3657 0.3688 0.3712 0.3727 0.3743 0.3759 0.3767 0.3782 0.3814 0.3853 0.3868 0.3868 0.3876 0.3900 0.3939 0.4025 0.4064 0.4103 0.4166 0.4174 0.4166 0.4143 0.4150 0.4158 0.4174 0.4174 0.4174 0.4174 0.4135 0.4096 0.4143 0.4197 0.4205 0.4158 0.4205 0.4276 0.4276 0.4291 0.4315 0.4330 0.4323 0.4323 0.4377 0.4417 0.4448 0.4487 0.4526 0.4565 0.4581 0.4612 0.4644 0.4683 0.4753 0.4832 0.4918 0.4980 0.5051 0.5137 0.5215 0.5294 0.5356 0.5411 0.5442 0.5450 0.5474 0.5466 0.5395 0.5325 0.5286 0.5301 0.5411 0.5536 0.5670 0.5779 0.5818 0.5897 0.5959 0.5967 0.5897 0.5818 0.5748 0.5709 0.5701 0.5732 0.5810 0.5897 0.6006 0.6092 0.6132 0.6147 0.6147 0.6147 0.6124 0.6092
0.5419 0.5450 0.5466 0.5450 0.5411 0.5380 0.5356 0.5325 0.5309 0.5325 0.5348 0.5364 0.5364 0.5348 0.5309 0.5262 0.5215 0.5161 0.5082 0.4996 0.4902 0.4792 0.4706 0.4620 0.4534 0.4440 0.4354 0.4268 0.4182 0.4135 0.4088 0.4033 0.3970 0.3892 0.3829 0.3774 0.3688 0.3602 0.3493 0.3391 0.3273 0.3195 0.3132 0.3101 0.3132 0.3203 0.3328 0.3469 0.3602 0.3681 0.3649 0.3579 0.3485 0.3399 0.3305 0.3218 0.3226 0.3289 0.3422 0.3532 0.3618 0.3712 0.3790 0.3868 0.3908 0.3947 0.4002 0.4064 0.4127 0.4182 0.4244 0.4338 0.4432 0.4503 0.4565 0.4620 0.4659 0.4683 0.4675 0.4652 0.4636 0.4628 0.4644 0.4659 0.4706 0.4777 0.4832 0.4894 0.4973 0.5020 0.5020 0.4988 0.4941 0.4910 0.4855 0.4777 0.4675 0.4612 0.4573 0.4565 0.4558 0.4558 0.4573 0.4573 0.4526 0.4487 0.4503 0.4526 0.4558 0.4573 0.4573 0.4542 0.4495 0.4393 0.4299 0.4197 0.4080 0.3962 0.3853 0.3790 0.3727 0.3665 0.3594 0.3493 0.3367 0.3242 0.3140 0.3062 0.3038 0.3015 0.2991 0.3007 0.3046 0.3132 0.3242 0.3320 0.3391 0.3446 0.3508 0.3555 0.3579 0.3579 0.3563 0.3571 0.3563 0.3571 0.3579 0.3618 0.3649 0.3665 0.3681 0.3696 0.3712 0.3720 0.3727 0.3751 0.3774 0.3806 0.3845 0.3829 0.3821 0.3892 0.3970 0.4002 0.4033 0.4064 0.4088 0.4088 0.4080 0.4072 0.4049 0.4064 0.4072 0.4088 0.4080 0.4041 0.4009 0.4025 0.4072 0.4111 0.4150 0.4158 0.4174 0.4205 0.4221 0.4268 0.4307 0.4307 0.4338 0.4370 0.4401 0.4424 0.4448 0.4471 0.4471 0.4503 0.4542 0.4589 0.4636 0.4699 0.4745 0.4816 0.4871 0.4918 0.4980 0.5090 0.5184 0.5239 0.5286 0.5301 0.5309 0.5325 0.5341 0.5309 0.5247 0.5231 0.5255 0.5348 0.5458 0.5568 0.5670 0.5732 0.5795 0.5842 0.5850 0.5803 0.5732 0.5685 0.5654 0.5638 0.5662 0.5724 0.5810 0.5928 0.6022 0.6030 0.6045 0.6053 0.6053 0.6022 0.5998
0.5529 0.5544 0.5568 0.5560 0.5489 0.5450 0.5419 0.5380 0.5341 0.5317 0.5294 0.5286 0.5286 0.5278 0.5239 0.5208 0.5137 0.5090 0.5035 0.4973 0.4886 0.4785 0.4667 0.4565 0.4471 0.4385 0.4299 0.4213 0.4150 0.4088 0.4033 0.3962 0.3892 0.3814 0.3767 0.3727 0.3673 0.3602 0.3524 0.3414 0.3305 0.3218 0.3164 0.3140 0.3156 0.3258 0.3367 0.3485 0.3602 0.3634 0.3602 0.3516 0.3430 0.3352 0.3265 0.3242 0.3258 0.3328 0.3438 0.3555 0.3665 0.3759 0.3837 0.3900 0.3970 0.4041 0.4096 0.4174 0.4236 0.4291 0.4354 0.4440 0.4503 0.4581 0.4675 0.4738 0.4769 0.4792 0.4777 0.4761 0.4753 0.4730 0.4706 0.4706 0.4730 0.4785 0.4863 0.4933 0.4988 0.5012 0.5004 0.4973 0.4926 0.4886 0.4855 0.4769 0.4699 0.4652 0.4636 0.4644 0.4644 0.4659 0.4667 0.4652 0.4605 0.4550 0.4550 0.4573 0.4597 0.4605 0.4589 0.4550 0.4503 0.4424 0.4338 0.4252 0.4143 0.4025 0.3931 0.3845 0.3790 0.3727 0.3673 0.3579 0.3446 0.3328 0.3250 0.3179 0.3109 0.3054 0.2999 0.2991 0.3023 0.3093 0.3171 0.3265 0.3344 0.3414 0.3453 0.3469 0.3477 0.3477 0.3477 0.3469 0.3469 0.3477 0.3524 0.3571 0.3602 0.3618 0.3618 0.3626 0.3634 0.3649 0.3657 0.3673 0.3696 0.3743 0.3751 0.3751 0.3767 0.3806 0.3861 0.3962 0.3978 0.3962 0.3986 0.3994 0.3994 0.3962 0.3908 0.3876 0.3939 0.3962 0.3978 0.3970 0.3970 0.3994 0.4025 0.4103 0.4174 0.4190 0.4190 0.4182 0.4221 0.4268 0.4338 0.4409 0.4448 0.4471 0.4471 0.4471 0.4487 0.4511 0.4526 0.4534 0.4558 0.4597 0.4628 0.4644 0.4667 0.4691 0.4730 0.4785 0.4863 0.4996 0.5082 0.5082 0.5098 0.5114 0.5145 0.5200 0.5231 0.5192 0.5161 0.5129 0.5176 0.5270 0.5364 0.5466 0.5560 0.5638 0.5693 0.5732 0.5748 0.5724 0.5677 0.5630 0.5583 0.5583 0.5615 0.5693 0.5764 0.5818 0.5897 0.5944 0.5959 0.5959 0.5951 0.5928 0.5904
0.5599 0.5630 0.5630 0.5615 0.5568 0.5513 0.5466 0.5395 0.5333 0.5270 0.5223 0.5200 0.5168 0.5137 0.5129 0.5074 0.5020 0.4980 0.4926 0.4871 0.4792 0.4691 0.4589 0.4503 0.4417 0.4330 0.4252 0.4190 0.4111 0.4033 0.3962 0.3892 0.3821 0.3759 0.3712 0.3665 0.3618 0.3571 0.3508 0.3422 0.3328 0.3234 0.3171 0.3156 0.3218 0.3320 0.3446 0.3524 0.3602 0.3634 0.3587 0.3493 0.3383 0.3297 0.3242 0.3242 0.3297 0.3375 0.3477 0.3594 0.3673 0.3751 0.3829 0.3923 0.4009 0.4080 0.4150 0.4213 0.4307 0.4401 0.4479 0.4526 0.4589 0.4683 0.4777 0.4839 0.4863 0.4871 0.4855 0.4824 0.4808 0.4800 0.4792 0.4785 0.4785 0.4808 0.4871 0.4933 0.4988 0.5004 0.5012 0.4996 0.4957 0.4918 0.4871 0.4808 0.4745 0.4730 0.4730 0.4745 0.4753 0.4753 0.4738 0.4714 0.4652 0.4605 0.4605 0.4612 0.4612 0.4605 0.4581 0.4542 0.4479 0.4393 0.4323 0.4252 0.4166 0.4088 0.4002 0.3915 0.3861 0.3798 0.3735 0.3649 0.3532 0.3422 0.3344 0.3281 0.3203 0.3093 0.3031 0.3015 0.3031 0.3070 0.3125 0.3203 0.3258 0.3297 0.3344 0.3375 0.3383 0.3391 0.3391 0.3391 0.3391 0.3422 0.3461 0.3516 0.3540 0.3555 0.3540 0.3540 0.3540 0.3547 0.3563 0.3579 0.3610 0.3641 0.3665 0.3681 0.3704 0.3743 0.3821 0.3876 0.3876 0.3876 0.3892 0.3908 0.3884 0.3814 0.3759 0.3767 0.3829 0.3947 0.4033 0.4088 0.4096 0.4033 0.4064 0.4135 0.4190 0.4236 0.4260 0.4307 0.4354 0.4417 0.4479 0.4550 0.4605 0.4612 0.4612 0.4612 0.4636 0.4667 0.4683 0.4667 0.4667 0.4683 0.4699 0.4699 0.4691 0.4691 0.4699 0.4722 0.4847 0.4965 0.4941 0.4957 0.4980 0.5012 0.5051 0.5090 0.5106 0.5114 0.5082 0.5074 0.5129 0.5200 0.5278 0.5348 0.5435 0.5505 0.5568 0.5623 0.5638 0.5623 0.5583 0.5544 0.5521 0.5513 0.5591 0.5654 0.5701 0.5748 0.5795 0.5834 0.5850 0.5857 0.5842 0.5834 0.5826
0.5693 0.5677 0.5662 0.5638 0.5607 0.5536 0.5466 0.5372 0.5286 0.5208 0.5145 0.5114 0.5059 0.5012 0.4988 0.4957 0.4910 0.4855 0.4808 0.4738 0.4667 0.4589 0.4518 0.4440 0.4362 0.4276 0.4182 0.4111 0.4041 0.3970 0.3892 0.3814 0.3751 0.3712 0.3649 0.3587 0.3540 0.3508 0.3453 0.3367 0.3281 0.3195 0.3140 0.3195 0.3234 0.3297 0.3461 0.3563 0.3641 0.3626 0.3563 0.3446 0.3344 0.3289 0.3273 0.3320 0.3391 0.3469 0.3555 0.3649 0.3712 0.3759 0.3837 0.3931 0.4009 0.4088 0.4150 0.4229 0.4330 0.4448 0.4534 0.4612 0.4683 0.4777 0.4847 0.4902 0.4918 0.4910 0.4894 0.4871 0.4855 0.4863 0.4863 0.4863 0.4847 0.4863 0.4894 0.4933 0.4965 0.5004 0.5020 0.5012 0.4980 0.4941 0.4910 0.4855 0.4816 0.4800 0.4808 0.4824 0.4839 0.4832 0.4785 0.4745 0.4706 0.4675 0.4659 0.4644 0.4612 0.4581 0.4542 0.4487 0.4432 0.4346 0.4276 0.4205 0.4135 0.4080 0.4033 0.3955 0.3892 0.3837 0.3767 0.3696 0.3587 0.3500 0.3430 0.3344 0.3258 0.3132 0.3054 0.3023 0.3031 0.3054 0.3109 0.3125 0.3171 0.3195 0.3250 0.3281 0.3305 0.3305 0.3297 0.3297 0.3320 0.3328 0.3375 0.3430 0.3469 0.3485 0.3477 0.3469 0.3477 0.3477 0.3485 0.3485 0.3500 0.3524 0.3555 0.3587 0.3626 0.3681 0.3712 0.3743 0.3790 0.3821 0.3845 0.3837 0.3798 0.3735 0.3743 0.3782 0.3861 0.3955 0.4072 0.4158 0.4150 0.4135 0.4143 0.4197 0.4236 0.4268 0.4299 0.4346 0.4401 0.4487 0.4581 0.4652 0.4683 0.4699 0.4714 0.4738 0.4761 0.4785 0.4777 0.4769 0.4769 0.4808 0.4855 0.4871 0.4839 0.4808 0.4785 0.4769 0.4800 0.4839 0.4855 0.4863 0.4933 0.4973 0.4973 0.4957 0.5004 0.5051 0.5074 0.5098 0.5114 0.5168 0.5239 0.5301 0.5372 0.5427 0.5474 0.5505 0.5521 0.5521 0.5489 0.5466 0.5442 0.5458 0.5513 0.5591 0.5646 0.5685 0.5717 0.5709 0.5717 0.5732 0.5756 0.5764 0.5764
0.5709 0.5670 0.5630 0.5591 0.5544 0.5489 0.5411 0.5309 0.5223 0.5145 0.5082 0.5027 0.4973 0.4918 0.4886 0.4855 0.4800 0.4753 0.4683 0.4597 0.4534 0.4503 0.4440 0.4362 0.4291 0.4182 0.4088 0.4017 0.3955 0.3900 0.3829 0.3751 0.3681 0.3634 0.3579 0.3524 0.3469 0.3414 0.3352 0.3273 0.3195 0.3148 0.3156 0.3234 0.3312 0.3446 0.3571 0.3657 0.3665 0.3634 0.3547 0.3438 0.3352 0.3289 0.3336 0.3399 0.3485 0.3555 0.3641 0.3727 0.3774 0.3814 0.3884 0.3939 0.4009 0.4096 0.4174 0.4244 0.4330 0.4471 0.4581 0.4659 0.4753 0.4832 0.4879 0.4910 0.4933 0.4941 0.4933 0.4926 0.4918 0.4926 0.4926 0.4926 0.4926 0.4933 0.4941 0.4949 0.4980 0.5004 0.5027 0.5035 0.5004 0.4973 0.4957 0.4926 0.4894 0.4886 0.4886 0.4902 0.4910 0.4879 0.4832 0.4785 0.4745 0.4722 0.4691 0.4644 0.4573 0.4518 0.4448 0.4401 0.4362 0.4291 0.4213 0.4135 0.4072 0.4017 0.3978 0.3923 0.3845 0.3782 0.3751 0.3688 0.3610 0.3516 0.3422 0.3352 0.3281 0.3179 0.3078 0.3031 0.3023 0.3046 0.3070 0.3085 0.3101 0.3148 0.3179 0.3195 0.3218 0.3234 0.3234 0.3242 0.3258 0.3289 0.3312 0.3344 0.3391 0.3414 0.3414 0.3414 0.3430 0.3446 0.3469 0.3461 0.3446 0.3469 0.3500 0.3540 0.3563 0.3602 0.3657 0.3665 0.3704 0.3751 0.3774 0.3759 0.3727 0.3727 0.3767 0.3829 0.3915 0.4002 0.4103 0.4150 0.4174 0.4174 0.4213 0.4252 0.4283 0.4299 0.4323 0.4370 0.4440 0.4526 0.4644 0.4722 0.4769 0.4816 0.4832 0.4847 0.4847 0.4863 0.4871 0.4855 0.4855 0.4894 0.4957 0.4996 0.4988 0.4965 0.4926 0.4902 0.4886 0.4886 0.4894 0.4918 0.4941 0.4973 0.4933 0.4957 0.5012 0.5067 0.5090 0.5098 0.5121 0.5168 0.5239 0.5286 0.5333 0.5388 0.5411 0.5427 0.5435 0.5411 0.5388 0.5372 0.5395 0.5435 0.5497 0.5568 0.5623 0.5654 0.5654 0.5646 0.5638 0.5662 0.5685 0.5677 0.5670
0.5638 0.5583 0.5521 0.5482 0.5450 0.5411 0.5325 0.5239 0.5161 0.5082 0.5012 0.4949 0.4886 0.4824 0.4785 0.4745 0.4699 0.4628 0.4542 0.4479 0.4432 0.4393 0.4338 0.4268 0.4182 0.4096 0.4017 0.3947 0.3900 0.3837 0.3767 0.3688 0.3626 0.3571 0.3524 0.3477 0.3422 0.3359 0.3273 0.3211 0.3164 0.3148 0.3211 0.3312 0.3406 0.3493 0.3602 0.3681 0.3673 0.3602 0.3516 0.3414 0.3320 0.3289 0.3336 0.3430 0.3516 0.3610 0.3704 0.3798 0.3853 0.3908 0.3955 0.4002 0.4056 0.4150 0.4252 0.4338 0.4432 0.4511 0.4620 0.4722 0.4785 0.4824 0.4871 0.4910 0.4926 0.4941 0.4957 0.4973 0.4996 0.5004 0.5004 0.5004 0.5012 0.5004 0.4988 0.4980 0.4996 0.5020 0.5035 0.5035 0.5043 0.5027 0.5004 0.4988 0.4965 0.4965 0.4957 0.4965 0.4957 0.4926 0.4879 0.4832 0.4785 0.4738 0.4667 0.4581 0.4503 0.4424 0.4370 0.4338 0.4299 0.4229 0.4150 0.4072 0.4009 0.3947 0.3892 0.3821 0.3767 0.3735 0.3704 0.3657 0.3555 0.3438 0.3359 0.3297 0.3250 0.3187 0.3117 0.3070 0.3054 0.3046 0.3054 0.3062 0.3078 0.3109 0.3148 0.3179 0.3203 0.3250 0.3258 0.3250 0.3273 0.3297 0.3320 0.3328 0.3344 0.3375 0.3406 0.3438 0.3461 0.3516 0.3540 0.3547 0.3563 0.3563 0.3555 0.3563 0.3555 0.3602 0.3610 0.3618 0.3641 0.3681 0.3688 0.3681 0.3704 0.3727 0.3782 0.3908 0.3994 0.4056 0.4119 0.4158 0.4182 0.4221 0.4252 0.4299 0.4323 0.4338 0.4370 0.4401 0.4456 0.4558 0.4667 0.4753 0.4832 0.4894 0.4933 0.4926 0.4926 0.4941 0.4949 0.4941 0.4933 0.4965 0.5020 0.5082 0.5106 0.5074 0.5051 0.5004 0.4973 0.4965 0.4973 0.4988 0.5004 0.4988 0.4988 0.5004 0.5051 0.5082 0.5090 0.5114 0.5161 0.5239 0.5278 0.5309 0.5341 0.5364 0.5372 0.5372 0.5364 0.5341 0.5301 0.5325 0.5364 0.5419 0.5482 0.5544 0.5583 0.5591 0.5583 0.5560 0.5576 0.5607 0.5638 0.5623 0.5607
0.5536 0.5474 0.5419 0.5380 0.5348 0.5317 0.5255 0.5184 0.5106 0.5020 0.4941 0.4847 0.4777 0.4714 0.4644 0.4597 0.4573 0.4534 0.4471 0.4409 0.4362 0.4315 0.4268 0.4205 0.4135 0.4056 0.3986 0.3908 0.3845 0.3782 0.3720 0.3649 0.3602 0.3555 0.3508 0.3453 0.3399 0.3305 0.3226 0.3187 0.3164 0.3187 0.3250 0.3336 0.3446 0.3547 0.3610 0.3634 0.3610 0.3532 0.3446 0.3375 0.3312 0.3312 0.3375 0.3461 0.3594 0.3696 0.3790 0.3868 0.3931 0.3994 0.4056 0.4127 0.4205 0.4299 0.4401 0.4456 0.4503 0.4565 0.4636 0.4706 0.4753 0.4800 0.4839 0.4871 0.4902 0.4933 0.4973 0.5012 0.5059 0.5090 0.5090 0.5082 0.5082 0.5059 0.5027 0.5012 0.5012 0.5020 0.5020 0.5027 0.5035 0.5035 0.5004 0.4973 0.4980 0.4980 0.4988 0.4980 0.4973 0.4941 0.4902 0.4863 0.4808 0.4722 0.4620 0.4511 0.4424 0.4362 0.4307 0.4276 0.4229 0.4143 0.4080 0.4017 0.3970 0.3908 0.3821 0.3735 0.3712 0.3681 0.3649 0.3579 0.3493 0.3414 0.3336 0.3273 0.3226 0.3187 0.3140 0.3109 0.3085 0.3070 0.3070 0.3070 0.3078 0.3109 0.3171 0.3234 0.3320 0.3367 0.3383 0.3383 0.3367 0.3367 0.3367 0.3375 0.3399 0.3438 0.3485 0.3532 0.3594 0.3641 0.3688 0.3704 0.3712 0.3727 0.3720 0.3704 0.3704 0.3681 0.3673 0.3673 0.3704 0.3712 0.3688 0.3704 0.3743 0.3821 0.3908 0.3986 0.4056 0.4119 0.4174 0.4213 0.4244 0.4283 0.4323 0.4354 0.4385 0.4424 0.4448 0.4471 0.4511 0.4589 0.4675 0.4769 0.4871 0.4965 0.5012 0.5035 0.5043 0.5043 0.5035 0.5043 0.5035 0.5051 0.5074 0.5114 0.5137 0.5129 0.5098 0.5074 0.5059 0.5059 0.5074 0.5098 0.5098 0.5098 0.5106 0.5121 0.5153 0.5184 0.5184 0.5208 0.5278 0.5309 0.5333 0.5341 0.5348 0.5348 0.5333 0.5325 0.5309 0.5270 0.5255 0.5262 0.5325 0.5388 0.5450 0.5497 0.5505 0.5497 0.5482 0.5489 0.5505 0.5552 0.5568 0.5568 0.5544
