0.6038 0.6030 0.6022 0.6006 0.5983 0.5975 0.5975 0.5975 0.5959 0.5944 0.5920 0.5912 0.5912 0.5904 0.5897 0.5889 0.5873 0.5873 0.5873 0.5865 0.5850 0.5842 0.5857 0.5881 0.5857 0.5842 0.5850 0.5850 0.5842 0.5826 0.5795 0.5771 0.5756 0.5732 0.5677 0.5677 0.5693 0.5724 0.5771 0.5826 0.5881 0.5936 0.5998 0.6045 0.6077 0.6100 0.6132 0.6132 0.6132 0.6132 0.6132 0.6116 0.6108 0.6100 0.6085 0.6077 0.6069 0.6061 0.6053 0.6030 0.6006 0.5983 0.5967 0.5944 0.5936 0.5920 0.5897 0.5881 0.5850 0.5826 0.5826 0.5834 0.5834 0.5818 0.5795 0.5787 0.5771 0.5764 0.5732 0.5709 0.5701 0.5709 0.5701 0.5677 0.5638 0.5591 0.5552 0.5513 0.5482 0.5450 0.5419 0.5380 0.5325 0.5270 0.5223 0.5176 0.5137 0.5098 0.5082 0.5082 0.5098 0.5106 0.5121 0.5145 0.5168 0.5176 0.5192 0.5215 0.5239 0.5247 0.5255 0.5278 0.5294 0.5294 0.5270 0.5239 0.5208 0.5176 0.5145 0.5145 0.5145 0.5161 0.5192 0.5231 0.5255 0.5294 0.5325 0.5348 0.5372 0.5380 0.5380 0.5380 0.5380 0.5364 0.5348 0.5325 0.5301 0.5278 0.5270 0.5294 0.5301 0.5301 0.5294 0.5294 0.5301 0.5317 0.5341 0.5364 0.5388 0.5388 0.5356 0.5341 0.5309 0.5278 0.5247 0.5208 0.5161 0.5106 0.5059 0.5020 0.4996 0.4980 0.4973 0.4980 0.5004 0.5035 0.5059 0.5090 0.5114 0.5153 0.5184 0.5231 0.5270 0.5309 0.5356 0.5372 0.5364 0.5341 0.5317 0.5286 0.5247 0.5215 0.5184 0.5153 0.5114 0.5090 0.5051 0.5027 0.5035 0.5051 0.5082 0.5106 0.5129 0.5145 0.5153 0.5145 0.5137 0.5114 0.5098 0.5074 0.5051 0.5035 0.5027 0.5027 0.5043 0.5051 0.5067 0.5074 0.5082 0.5082 0.5074 0.5067 0.5059 0.5027 0.4996 0.4996 0.4996 0.5004 0.4996 0.4996 0.4988 0.4980 0.4973 0.4965 0.4949 0.4941 0.4949 0.4933 0.4918 0.4910 0.4910 0.4910 0.4902 0.4886 0.4847 0.4824 0.4816 0.4792 0.4785 0.4777 0.4777
0.6045 0.6030 0.6022 0.6006 0.5998 0.5983 0.5983 0.5975 0.5959 0.5936 0.5920 0.5904 0.5904 0.5904 0.5897 0.5881 0.5881 0.5881 0.5881 0.5873 0.5881 0.5881 0.5904 0.5904 0.5881 0.5865 0.5857 0.5857 0.5842 0.5810 0.5787 0.5771 0.5756 0.5724 0.5701 0.5701 0.5717 0.5756 0.5795 0.5850 0.5928 0.5991 0.6022 0.6053 0.6085 0.6116 0.6132 0.6132 0.6124 0.6124 0.6108 0.6077 0.6061 0.6045 0.6038 0.6038 0.6030 0.6030 0.6006 0.5998 0.5975 0.5951 0.5920 0.5897 0.5889 0.5881 0.5873 0.5842 0.5810 0.5795 0.5795 0.5795 0.5787 0.5779 0.5764 0.5756 0.5748 0.5717 0.5685 0.5677 0.5677 0.5677 0.5670 0.5646 0.5607 0.5568 0.5529 0.5489 0.5466 0.5435 0.5411 0.5372 0.5333 0.5294 0.5239 0.5184 0.5137 0.5090 0.5074 0.5067 0.5074 0.5074 0.5090 0.5114 0.5129 0.5137 0.5161 0.5192 0.5208 0.5215 0.5231 0.5262 0.5286 0.5286 0.5262 0.5239 0.5200 0.5161 0.5137 0.5121 0.5121 0.5137 0.5176 0.5215 0.5247 0.5278 0.5309 0.5333 0.5348 0.5356 0.5356 0.5356 0.5348 0.5348 0.5341 0.5325 0.5301 0.5270 0.5262 0.5270 0.5270 0.5270 0.5270 0.5262 0.5278 0.5294 0.5317 0.5341 0.5364 0.5364 0.5356 0.5341 0.5325 0.5294 0.5262 0.5215 0.5168 0.5121 0.5067 0.5035 0.5012 0.4988 0.4973 0.4973 0.4988 0.5012 0.5051 0.5059 0.5098 0.5129 0.5168 0.5208 0.5239 0.5278 0.5317 0.5341 0.5333 0.5317 0.5294 0.5255 0.5215 0.5184 0.5168 0.5137 0.5114 0.5074 0.5035 0.5027 0.5027 0.5043 0.5059 0.5074 0.5098 0.5121 0.5137 0.5129 0.5106 0.5082 0.5074 0.5051 0.5027 0.5012 0.5012 0.5020 0.5043 0.5059 0.5067 0.5082 0.5090 0.5090 0.5090 0.5082 0.5067 0.5043 0.5020 0.5012 0.5020 0.5020 0.5020 0.5012 0.5012 0.5004 0.4988 0.4973 0.4949 0.4926 0.4910 0.4902 0.4894 0.4886 0.4886 0.4894 0.4894 0.4879 0.4855 0.4832 0.4816 0.4808 0.4792 0.4785 0.4785
0.6030 0.6014 0.6006 0.5998 0.5991 0.5983 0.5975 0.5959 0.5944 0.5936 0.5920 0.5904 0.5897 0.5889 0.5889 0.5889 0.5889 0.5889 0.5889 0.5904 0.5912 0.5912 0.5920 0.5912 0.5904 0.5889 0.5873 0.5857 0.5842 0.5818 0.5795 0.5779 0.5771 0.5779 0.5756 0.5740 0.5748 0.5779 0.5834 0.5897 0.5951 0.6006 0.6038 0.6061 0.6092 0.6100 0.6108 0.6108 0.6092 0.6085 0.6061 0.6045 0.6022 0.6014 0.6006 0.5998 0.5983 0.5967 0.5959 0.5944 0.5928 0.5904 0.5873 0.5865 0.5857 0.5842 0.5826 0.5803 0.5787 0.5779 0.5771 0.5764 0.5748 0.5732 0.5724 0.5717 0.5693 0.5670 0.5654 0.5654 0.5654 0.5654 0.5646 0.5623 0.5583 0.5552 0.5513 0.5474 0.5442 0.5403 0.5380 0.5356 0.5325 0.5278 0.5239 0.5200 0.5161 0.5114 0.5082 0.5067 0.5051 0.5059 0.5074 0.5098 0.5106 0.5121 0.5153 0.5176 0.5184 0.5192 0.5208 0.5231 0.5247 0.5239 0.5239 0.5215 0.5184 0.5153 0.5121 0.5114 0.5114 0.5114 0.5161 0.5200 0.5231 0.5247 0.5278 0.5301 0.5301 0.5309 0.5333 0.5333 0.5333 0.5333 0.5325 0.5317 0.5301 0.5278 0.5255 0.5239 0.5239 0.5239 0.5231 0.5223 0.5239 0.5262 0.5286 0.5325 0.5348 0.5348 0.5341 0.5333 0.5317 0.5294 0.5262 0.5223 0.5184 0.5137 0.5090 0.5059 0.5027 0.4996 0.4973 0.4973 0.4980 0.4996 0.5027 0.5043 0.5059 0.5098 0.5137 0.5168 0.5208 0.5239 0.5262 0.5286 0.5286 0.5278 0.5270 0.5247 0.5215 0.5184 0.5153 0.5137 0.5114 0.5082 0.5051 0.5035 0.5027 0.5027 0.5035 0.5051 0.5082 0.5114 0.5114 0.5098 0.5067 0.5043 0.5027 0.5020 0.5012 0.5004 0.5012 0.5020 0.5035 0.5051 0.5067 0.5074 0.5090 0.5098 0.5098 0.5098 0.5090 0.5067 0.5051 0.5051 0.5051 0.5043 0.5043 0.5027 0.5020 0.5012 0.5004 0.4988 0.4973 0.4941 0.4918 0.4894 0.4879 0.4879 0.4879 0.4879 0.4879 0.4871 0.4855 0.4839 0.4832 0.4816 0.4792 0.4785 0.4777
0.6030 0.6006 0.5998 0.5991 0.5983 0.5975 0.5967 0.5951 0.5944 0.5936 0.5920 0.5904 0.5889 0.5881 0.5881 0.5889 0.5897 0.5904 0.5912 0.5928 0.5936 0.5936 0.5936 0.5928 0.5920 0.5912 0.5889 0.5873 0.5850 0.5834 0.5810 0.5803 0.5818 0.5834 0.5826 0.5810 0.5803 0.5826 0.5865 0.5920 0.5967 0.6006 0.6038 0.6053 0.6061 0.6061 0.6077 0.6069 0.6045 0.6038 0.6030 0.6022 0.6006 0.5998 0.5983 0.5959 0.5936 0.5928 0.5904 0.5889 0.5873 0.5842 0.5834 0.5826 0.5818 0.5803 0.5787 0.5779 0.5764 0.5756 0.5740 0.5732 0.5717 0.5701 0.5693 0.5670 0.5654 0.5638 0.5615 0.5615 0.5623 0.5630 0.5615 0.5591 0.5560 0.5529 0.5489 0.5458 0.5411 0.5372 0.5348 0.5325 0.5294 0.5262 0.5231 0.5208 0.5184 0.5145 0.5098 0.5067 0.5051 0.5051 0.5059 0.5074 0.5082 0.5106 0.5121 0.5153 0.5161 0.5168 0.5176 0.5192 0.5200 0.5208 0.5208 0.5200 0.5176 0.5153 0.5114 0.5090 0.5090 0.5098 0.5129 0.5176 0.5208 0.5223 0.5239 0.5247 0.5255 0.5270 0.5286 0.5301 0.5309 0.5301 0.5294 0.5286 0.5270 0.5247 0.5231 0.5208 0.5200 0.5200 0.5192 0.5200 0.5208 0.5239 0.5270 0.5309 0.5325 0.5325 0.5325 0.5317 0.5309 0.5286 0.5255 0.5215 0.5184 0.5145 0.5114 0.5074 0.5035 0.5004 0.4973 0.4957 0.4957 0.4980 0.5004 0.5027 0.5035 0.5067 0.5114 0.5137 0.5176 0.5208 0.5231 0.5239 0.5239 0.5247 0.5247 0.5215 0.5208 0.5192 0.5184 0.5161 0.5137 0.5114 0.5074 0.5051 0.5035 0.5012 0.5012 0.5027 0.5051 0.5074 0.5067 0.5059 0.5027 0.5004 0.5004 0.5004 0.5004 0.5012 0.5020 0.5027 0.5035 0.5043 0.5067 0.5082 0.5098 0.5098 0.5098 0.5098 0.5106 0.5098 0.5090 0.5082 0.5067 0.5067 0.5067 0.5051 0.5035 0.5012 0.5012 0.5020 0.5012 0.4988 0.4957 0.4926 0.4910 0.4879 0.4871 0.4871 0.4863 0.4863 0.4855 0.4847 0.4832 0.4816 0.4792 0.4785 0.4777
0.6030 0.6006 0.5991 0.5983 0.5975 0.5975 0.5959 0.5944 0.5936 0.5928 0.5920 0.5904 0.5897 0.5897 0.5897 0.5912 0.5920 0.5928 0.5936 0.5936 0.5944 0.5944 0.5944 0.5936 0.5928 0.5912 0.5889 0.5865 0.5850 0.5834 0.5834 0.5834 0.5842 0.5850 0.5842 0.5834 0.5834 0.5842 0.5873 0.5912 0.5951 0.5983 0.5998 0.6014 0.6014 0.6022 0.6030 0.6030 0.6014 0.5998 0.5991 0.5967 0.5959 0.5959 0.5959 0.5936 0.5912 0.5889 0.5865 0.5850 0.5826 0.5818 0.5810 0.5803 0.5787 0.5764 0.5756 0.5756 0.5740 0.5724 0.5709 0.5701 0.5677 0.5670 0.5662 0.5646 0.5638 0.5615 0.5591 0.5583 0.5591 0.5591 0.5576 0.5560 0.5529 0.5497 0.5466 0.5435 0.5380 0.5341 0.5325 0.5309 0.5286 0.5255 0.5231 0.5215 0.5200 0.5176 0.5121 0.5082 0.5067 0.5051 0.5043 0.5051 0.5059 0.5074 0.5098 0.5114 0.5129 0.5145 0.5153 0.5161 0.5176 0.5184 0.5184 0.5184 0.5161 0.5145 0.5106 0.5082 0.5082 0.5090 0.5121 0.5161 0.5200 0.5208 0.5223 0.5223 0.5231 0.5231 0.5239 0.5247 0.5270 0.5278 0.5270 0.5255 0.5239 0.5215 0.5208 0.5184 0.5161 0.5161 0.5176 0.5192 0.5208 0.5231 0.5255 0.5278 0.5294 0.5294 0.5301 0.5301 0.5301 0.5286 0.5262 0.5215 0.5184 0.5161 0.5129 0.5090 0.5051 0.5012 0.4973 0.4957 0.4949 0.4957 0.4973 0.4988 0.5020 0.5043 0.5067 0.5098 0.5129 0.5161 0.5176 0.5192 0.5208 0.5215 0.5208 0.5200 0.5200 0.5200 0.5208 0.5192 0.5153 0.5121 0.5082 0.5051 0.5020 0.4996 0.4988 0.4996 0.5012 0.5020 0.5020 0.5012 0.4996 0.4988 0.4988 0.5004 0.5012 0.5020 0.5035 0.5035 0.5043 0.5051 0.5067 0.5082 0.5098 0.5106 0.5106 0.5114 0.5121 0.5129 0.5114 0.5082 0.5074 0.5067 0.5067 0.5059 0.5051 0.5035 0.5043 0.5043 0.5043 0.5020 0.4980 0.4965 0.4926 0.4910 0.4879 0.4855 0.4847 0.4839 0.4832 0.4832 0.4816 0.4800 0.4785 0.4769 0.4761
0.6030 0.6006 0.5991 0.5983 0.5983 0.5975 0.5959 0.5944 0.5936 0.5928 0.5928 0.5920 0.5920 0.5920 0.5928 0.5928 0.5928 0.5928 0.5944 0.5936 0.5944 0.5951 0.5944 0.5936 0.5920 0.5897 0.5881 0.5865 0.5857 0.5850 0.5850 0.5857 0.5865 0.5865 0.5857 0.5842 0.5834 0.5834 0.5857 0.5889 0.5928 0.5959 0.5983 0.5983 0.5983 0.5983 0.5991 0.5991 0.5975 0.5967 0.5951 0.5928 0.5920 0.5920 0.5920 0.5904 0.5881 0.5857 0.5842 0.5826 0.5810 0.5787 0.5787 0.5771 0.5756 0.5724 0.5717 0.5717 0.5709 0.5693 0.5677 0.5662 0.5646 0.5646 0.5630 0.5630 0.5623 0.5607 0.5576 0.5560 0.5560 0.5552 0.5536 0.5513 0.5497 0.5474 0.5450 0.5419 0.5372 0.5333 0.5309 0.5301 0.5270 0.5255 0.5239 0.5223 0.5208 0.5184 0.5145 0.5106 0.5074 0.5059 0.5051 0.5043 0.5043 0.5051 0.5067 0.5090 0.5106 0.5114 0.5114 0.5129 0.5153 0.5161 0.5161 0.5145 0.5121 0.5106 0.5082 0.5074 0.5074 0.5074 0.5106 0.5153 0.5176 0.5192 0.5200 0.5208 0.5208 0.5215 0.5208 0.5215 0.5247 0.5270 0.5262 0.5247 0.5223 0.5200 0.5176 0.5153 0.5145 0.5145 0.5153 0.5176 0.5192 0.5208 0.5223 0.5239 0.5255 0.5262 0.5262 0.5286 0.5301 0.5301 0.5286 0.5255 0.5208 0.5184 0.5145 0.5114 0.5067 0.5027 0.5004 0.4965 0.4949 0.4949 0.4957 0.4965 0.4988 0.5012 0.5035 0.5059 0.5090 0.5114 0.5129 0.5145 0.5161 0.5176 0.5192 0.5200 0.5200 0.5208 0.5208 0.5208 0.5168 0.5121 0.5082 0.5051 0.5035 0.5012 0.4980 0.4973 0.4973 0.4980 0.4980 0.4980 0.4980 0.4973 0.4996 0.5020 0.5035 0.5051 0.5059 0.5059 0.5067 0.5059 0.5067 0.5090 0.5098 0.5114 0.5121 0.5137 0.5145 0.5137 0.5121 0.5106 0.5090 0.5074 0.5067 0.5067 0.5059 0.5043 0.5051 0.5051 0.5051 0.5027 0.5004 0.4980 0.4949 0.4926 0.4886 0.4863 0.4839 0.4824 0.4816 0.4808 0.4808 0.4800 0.4785 0.4777 0.4753
0.6030 0.6022 0.6006 0.5998 0.5991 0.5983 0.5975 0.5967 0.5951 0.5951 0.5944 0.5936 0.5936 0.5951 0.5951 0.5944 0.5928 0.5936 0.5936 0.5951 0.5959 0.5951 0.5944 0.5936 0.5912 0.5889 0.5873 0.5865 0.5865 0.5857 0.5865 0.5873 0.5881 0.5889 0.5865 0.5857 0.5850 0.5842 0.5857 0.5889 0.5928 0.5959 0.5967 0.5959 0.5951 0.5944 0.5951 0.5951 0.5951 0.5936 0.5920 0.5904 0.5889 0.5881 0.5873 0.5865 0.5857 0.5834 0.5834 0.5818 0.5787 0.5764 0.5756 0.5740 0.5709 0.5685 0.5685 0.5677 0.5670 0.5662 0.5654 0.5646 0.5638 0.5615 0.5599 0.5599 0.5591 0.5576 0.5552 0.5536 0.5536 0.5529 0.5505 0.5489 0.5458 0.5435 0.5419 0.5388 0.5348 0.5317 0.5294 0.5270 0.5255 0.5239 0.5223 0.5215 0.5200 0.5176 0.5153 0.5121 0.5090 0.5074 0.5067 0.5051 0.5027 0.5027 0.5035 0.5051 0.5082 0.5090 0.5098 0.5114 0.5121 0.5121 0.5114 0.5098 0.5082 0.5074 0.5067 0.5059 0.5059 0.5051 0.5074 0.5098 0.5129 0.5161 0.5184 0.5192 0.5200 0.5192 0.5184 0.5184 0.5223 0.5247 0.5247 0.5239 0.5215 0.5184 0.5153 0.5137 0.5121 0.5121 0.5137 0.5161 0.5176 0.5184 0.5192 0.5208 0.5223 0.5239 0.5255 0.5270 0.5301 0.5309 0.5317 0.5294 0.5262 0.5215 0.5168 0.5137 0.5098 0.5059 0.5012 0.4988 0.4973 0.4949 0.4949 0.4949 0.4965 0.4988 0.5012 0.5043 0.5067 0.5074 0.5090 0.5106 0.5121 0.5153 0.5176 0.5192 0.5200 0.5208 0.5208 0.5200 0.5176 0.5137 0.5098 0.5074 0.5051 0.5020 0.4980 0.4965 0.4957 0.4957 0.4965 0.4965 0.4965 0.4973 0.4996 0.5020 0.5043 0.5067 0.5082 0.5098 0.5098 0.5090 0.5090 0.5106 0.5121 0.5137 0.5145 0.5161 0.5161 0.5153 0.5137 0.5121 0.5106 0.5090 0.5082 0.5074 0.5059 0.5043 0.5043 0.5051 0.5043 0.5027 0.5012 0.4988 0.4957 0.4933 0.4902 0.4871 0.4839 0.4832 0.4808 0.4792 0.4792 0.4792 0.4785 0.4777 0.4761
0.6038 0.6030 0.6030 0.6022 0.5998 0.5991 0.5983 0.5983 0.5983 0.5983 0.5975 0.5959 0.5959 0.5959 0.5959 0.5959 0.5951 0.5959 0.5967 0.5967 0.5967 0.5951 0.5936 0.5928 0.5904 0.5889 0.5881 0.5881 0.5873 0.5873 0.5873 0.5889 0.5897 0.5897 0.5889 0.5881 0.5873 0.5865 0.5873 0.5897 0.5928 0.5944 0.5951 0.5936 0.5928 0.5920 0.5928 0.5928 0.5920 0.5904 0.5889 0.5873 0.5857 0.5842 0.5834 0.5826 0.5826 0.5826 0.5803 0.5787 0.5764 0.5748 0.5724 0.5709 0.5677 0.5662 0.5654 0.5646 0.5638 0.5638 0.5638 0.5630 0.5607 0.5583 0.5568 0.5560 0.5552 0.5544 0.5536 0.5529 0.5521 0.5505 0.5497 0.5466 0.5435 0.5411 0.5388 0.5356 0.5325 0.5286 0.5262 0.5247 0.5223 0.5208 0.5208 0.5192 0.5176 0.5161 0.5137 0.5114 0.5098 0.5082 0.5067 0.5043 0.5020 0.5012 0.5012 0.5027 0.5051 0.5067 0.5082 0.5090 0.5082 0.5074 0.5074 0.5067 0.5074 0.5074 0.5059 0.5043 0.5043 0.5035 0.5035 0.5059 0.5098 0.5145 0.5168 0.5176 0.5168 0.5161 0.5153 0.5153 0.5184 0.5208 0.5223 0.5223 0.5208 0.5176 0.5145 0.5121 0.5114 0.5106 0.5114 0.5145 0.5161 0.5161 0.5161 0.5161 0.5184 0.5208 0.5231 0.5255 0.5262 0.5286 0.5301 0.5294 0.5270 0.5223 0.5192 0.5161 0.5137 0.5106 0.5067 0.5035 0.4996 0.4965 0.4941 0.4933 0.4949 0.4965 0.4988 0.5012 0.5027 0.5043 0.5059 0.5074 0.5106 0.5145 0.5168 0.5184 0.5192 0.5200 0.5200 0.5184 0.5161 0.5129 0.5090 0.5059 0.5043 0.5012 0.4980 0.4957 0.4949 0.4949 0.4949 0.4949 0.4949 0.4965 0.4988 0.5020 0.5043 0.5067 0.5090 0.5114 0.5121 0.5114 0.5121 0.5137 0.5145 0.5161 0.5168 0.5168 0.5161 0.5153 0.5145 0.5129 0.5106 0.5090 0.5074 0.5059 0.5043 0.5035 0.5027 0.5027 0.5027 0.5027 0.5004 0.4988 0.4965 0.4933 0.4886 0.4863 0.4839 0.4824 0.4808 0.4785 0.4777 0.4777 0.4785 0.4777 0.4761
0.6038 0.6045 0.6030 0.6014 0.5998 0.5991 0.5991 0.5991 0.6006 0.6006 0.5991 0.5983 0.5967 0.5967 0.5975 0.5975 0.5975 0.5983 0.5991 0.5991 0.5975 0.5959 0.5944 0.5920 0.5904 0.5889 0.5889 0.5889 0.5881 0.5881 0.5889 0.5897 0.5904 0.5904 0.5904 0.5897 0.5897 0.5889 0.5889 0.5904 0.5912 0.5920 0.5920 0.5920 0.5920 0.5912 0.5904 0.5897 0.5889 0.5881 0.5865 0.5842 0.5818 0.5810 0.5803 0.5803 0.5803 0.5787 0.5764 0.5756 0.5748 0.5717 0.5693 0.5670 0.5654 0.5638 0.5623 0.5607 0.5607 0.5607 0.5607 0.5599 0.5583 0.5560 0.5544 0.5521 0.5521 0.5521 0.5521 0.5513 0.5505 0.5482 0.5466 0.5442 0.5419 0.5395 0.5372 0.5348 0.5301 0.5270 0.5255 0.5223 0.5192 0.5168 0.5161 0.5153 0.5137 0.5121 0.5106 0.5098 0.5082 0.5074 0.5059 0.5043 0.5027 0.5012 0.5012 0.5012 0.5027 0.5035 0.5043 0.5051 0.5051 0.5043 0.5043 0.5059 0.5067 0.5051 0.5020 0.5004 0.5004 0.5004 0.5020 0.5043 0.5082 0.5121 0.5161 0.5153 0.5145 0.5121 0.5106 0.5129 0.5168 0.5192 0.5208 0.5215 0.5200 0.5168 0.5137 0.5106 0.5082 0.5082 0.5098 0.5121 0.5137 0.5137 0.5145 0.5153 0.5168 0.5184 0.5215 0.5223 0.5247 0.5262 0.5262 0.5262 0.5247 0.5223 0.5208 0.5184 0.5153 0.5137 0.5106 0.5059 0.5012 0.4973 0.4949 0.4933 0.4941 0.4949 0.4965 0.4980 0.5004 0.5020 0.5035 0.5059 0.5074 0.5121 0.5145 0.5168 0.5192 0.5192 0.5184 0.5168 0.5153 0.5129 0.5090 0.5059 0.5043 0.5020 0.4988 0.4957 0.4949 0.4957 0.4949 0.4941 0.4941 0.4949 0.4973 0.4996 0.5027 0.5059 0.5090 0.5106 0.5121 0.5129 0.5137 0.5145 0.5161 0.5168 0.5168 0.5168 0.5161 0.5153 0.5145 0.5137 0.5106 0.5082 0.5059 0.5035 0.5027 0.5012 0.5012 0.5020 0.5020 0.5012 0.4996 0.4957 0.4933 0.4902 0.4886 0.4863 0.4839 0.4824 0.4808 0.4785 0.4761 0.4761 0.4761 0.4769 0.4761
0.6022 0.6022 0.6022 0.6014 0.6014 0.5998 0.5998 0.6006 0.6014 0.6014 0.6014 0.6006 0.6006 0.5998 0.5998 0.5991 0.5991 0.5991 0.5991 0.5998 0.5991 0.5975 0.5944 0.5920 0.5904 0.5897 0.5897 0.5889 0.5889 0.5897 0.5912 0.5920 0.5928 0.5928 0.5920 0.5920 0.5928 0.5920 0.5912 0.5904 0.5897 0.5897 0.5904 0.5897 0.5889 0.5889 0.5881 0.5865 0.5857 0.5857 0.5850 0.5826 0.5803 0.5787 0.5779 0.5771 0.5756 0.5756 0.5748 0.5732 0.5717 0.5709 0.5677 0.5654 0.5638 0.5623 0.5599 0.5583 0.5568 0.5568 0.5568 0.5568 0.5560 0.5544 0.5521 0.5505 0.5489 0.5489 0.5505 0.5505 0.5482 0.5458 0.5435 0.5411 0.5395 0.5380 0.5364 0.5325 0.5278 0.5262 0.5231 0.5192 0.5161 0.5153 0.5129 0.5114 0.5098 0.5098 0.5090 0.5082 0.5074 0.5067 0.5059 0.5035 0.5020 0.5012 0.5004 0.5004 0.5012 0.5027 0.5035 0.5035 0.5035 0.5035 0.5027 0.5035 0.5035 0.5012 0.4988 0.4980 0.4980 0.4988 0.5004 0.5035 0.5067 0.5106 0.5129 0.5129 0.5106 0.5074 0.5074 0.5106 0.5129 0.5168 0.5184 0.5176 0.5168 0.5145 0.5121 0.5082 0.5067 0.5074 0.5090 0.5106 0.5114 0.5114 0.5121 0.5137 0.5153 0.5176 0.5200 0.5223 0.5239 0.5247 0.5247 0.5239 0.5231 0.5223 0.5200 0.5184 0.5161 0.5145 0.5121 0.5082 0.5020 0.4980 0.4957 0.4941 0.4933 0.4941 0.4949 0.4973 0.4988 0.5004 0.5020 0.5035 0.5051 0.5082 0.5121 0.5145 0.5168 0.5176 0.5168 0.5161 0.5161 0.5137 0.5106 0.5074 0.5059 0.5043 0.5004 0.4973 0.4957 0.4949 0.4941 0.4933 0.4933 0.4941 0.4957 0.4980 0.5020 0.5059 0.5074 0.5098 0.5114 0.5129 0.5137 0.5137 0.5153 0.5161 0.5161 0.5161 0.5153 0.5145 0.5137 0.5121 0.5098 0.5067 0.5043 0.5027 0.5012 0.4996 0.4996 0.4996 0.4996 0.4980 0.4949 0.4926 0.4902 0.4894 0.4879 0.4871 0.4839 0.4816 0.4800 0.4785 0.4753 0.4730 0.4738 0.4753 0.4745
0.5998 0.6006 0.6014 0.6030 0.6030 0.6030 0.6022 0.6022 0.6030 0.6030 0.6038 0.6030 0.6022 0.6022 0.6014 0.6006 0.5998 0.5991 0.5998 0.5998 0.5998 0.5983 0.5959 0.5928 0.5912 0.5904 0.5912 0.5912 0.5904 0.5912 0.5928 0.5936 0.5951 0.5944 0.5944 0.5944 0.5951 0.5944 0.5928 0.5912 0.5904 0.5897 0.5889 0.5873 0.5865 0.5865 0.5865 0.5850 0.5834 0.5834 0.5818 0.5810 0.5795 0.5779 0.5764 0.5740 0.5732 0.5724 0.5724 0.5709 0.5701 0.5685 0.5670 0.5646 0.5623 0.5607 0.5591 0.5568 0.5536 0.5521 0.5521 0.5529 0.5536 0.5529 0.5513 0.5489 0.5474 0.5474 0.5474 0.5466 0.5435 0.5403 0.5380 0.5364 0.5356 0.5341 0.5325 0.5286 0.5255 0.5231 0.5200 0.5153 0.5145 0.5129 0.5114 0.5106 0.5098 0.5098 0.5090 0.5090 0.5082 0.5074 0.5059 0.5035 0.5020 0.4996 0.4996 0.5004 0.5020 0.5027 0.5027 0.5027 0.5027 0.5012 0.5004 0.5004 0.5004 0.5004 0.4980 0.4973 0.4973 0.4980 0.5004 0.5027 0.5051 0.5074 0.5090 0.5074 0.5059 0.5051 0.5067 0.5082 0.5114 0.5137 0.5137 0.5129 0.5129 0.5114 0.5090 0.5067 0.5051 0.5051 0.5059 0.5074 0.5082 0.5090 0.5090 0.5106 0.5129 0.5153 0.5176 0.5208 0.5231 0.5239 0.5231 0.5223 0.5223 0.5215 0.5208 0.5192 0.5176 0.5145 0.5129 0.5082 0.5027 0.4988 0.4957 0.4926 0.4918 0.4918 0.4933 0.4949 0.4973 0.4988 0.5012 0.5020 0.5043 0.5067 0.5098 0.5129 0.5153 0.5161 0.5161 0.5161 0.5161 0.5145 0.5106 0.5082 0.5067 0.5051 0.5027 0.4988 0.4965 0.4941 0.4926 0.4926 0.4918 0.4926 0.4933 0.4957 0.4996 0.5035 0.5067 0.5082 0.5106 0.5121 0.5121 0.5129 0.5137 0.5145 0.5153 0.5153 0.5145 0.5129 0.5121 0.5114 0.5082 0.5067 0.5051 0.5027 0.5012 0.4996 0.4980 0.4957 0.4941 0.4933 0.4926 0.4918 0.4902 0.4886 0.4871 0.4855 0.4832 0.4800 0.4785 0.4761 0.4745 0.4730 0.4722 0.4722 0.4722
0.5983 0.5983 0.6006 0.6022 0.6038 0.6030 0.6030 0.6030 0.6030 0.6045 0.6053 0.6053 0.6045 0.6038 0.6030 0.6022 0.6014 0.6014 0.6014 0.6006 0.5998 0.5975 0.5951 0.5936 0.5920 0.5920 0.5928 0.5928 0.5936 0.5944 0.5951 0.5959 0.5967 0.5967 0.5959 0.5959 0.5959 0.5944 0.5928 0.5920 0.5912 0.5897 0.5881 0.5873 0.5857 0.5857 0.5850 0.5834 0.5818 0.5795 0.5795 0.5787 0.5779 0.5764 0.5740 0.5717 0.5701 0.5701 0.5693 0.5685 0.5670 0.5670 0.5646 0.5630 0.5607 0.5591 0.5576 0.5544 0.5513 0.5497 0.5497 0.5505 0.5505 0.5497 0.5482 0.5458 0.5450 0.5442 0.5435 0.5411 0.5388 0.5364 0.5341 0.5325 0.5309 0.5301 0.5286 0.5262 0.5239 0.5215 0.5184 0.5161 0.5145 0.5137 0.5129 0.5121 0.5121 0.5121 0.5121 0.5121 0.5121 0.5098 0.5082 0.5067 0.5035 0.5004 0.4996 0.5012 0.5020 0.5020 0.5004 0.5004 0.4996 0.4988 0.4988 0.4996 0.4996 0.4988 0.4973 0.4965 0.4965 0.4980 0.4996 0.5004 0.5012 0.5027 0.5027 0.5027 0.5020 0.5027 0.5051 0.5074 0.5090 0.5106 0.5106 0.5098 0.5090 0.5090 0.5074 0.5051 0.5043 0.5035 0.5035 0.5043 0.5067 0.5067 0.5074 0.5082 0.5106 0.5129 0.5153 0.5176 0.5200 0.5215 0.5223 0.5215 0.5208 0.5208 0.5192 0.5184 0.5153 0.5129 0.5114 0.5067 0.5012 0.4980 0.4957 0.4918 0.4902 0.4902 0.4910 0.4933 0.4957 0.4988 0.4996 0.5004 0.5027 0.5067 0.5090 0.5121 0.5129 0.5137 0.5145 0.5161 0.5161 0.5153 0.5121 0.5098 0.5074 0.5059 0.5035 0.4996 0.4957 0.4933 0.4918 0.4910 0.4910 0.4910 0.4926 0.4941 0.4973 0.5012 0.5035 0.5059 0.5074 0.5098 0.5106 0.5106 0.5114 0.5121 0.5129 0.5129 0.5121 0.5121 0.5121 0.5098 0.5082 0.5059 0.5035 0.5020 0.4996 0.4973 0.4941 0.4918 0.4902 0.4894 0.4902 0.4902 0.4894 0.4871 0.4855 0.4839 0.4824 0.4800 0.4769 0.4753 0.4745 0.4738 0.4722 0.4706 0.4691
0.5959 0.5967 0.5983 0.6014 0.6022 0.6022 0.6014 0.6022 0.6030 0.6045 0.6053 0.6061 0.6061 0.6053 0.6045 0.6038 0.6030 0.6022 0.6022 0.6014 0.6006 0.5983 0.5959 0.5944 0.5936 0.5928 0.5936 0.5944 0.5951 0.5967 0.5975 0.5983 0.5991 0.5983 0.5975 0.5959 0.5959 0.5944 0.5928 0.5920 0.5904 0.5889 0.5881 0.5873 0.5865 0.5850 0.5842 0.5818 0.5787 0.5764 0.5764 0.5764 0.5764 0.5748 0.5724 0.5709 0.5701 0.5685 0.5670 0.5646 0.5638 0.5630 0.5623 0.5607 0.5583 0.5568 0.5544 0.5513 0.5489 0.5474 0.5466 0.5474 0.5474 0.5466 0.5458 0.5442 0.5427 0.5411 0.5395 0.5372 0.5364 0.5341 0.5317 0.5294 0.5278 0.5262 0.5255 0.5247 0.5223 0.5200 0.5184 0.5161 0.5153 0.5153 0.5168 0.5176 0.5192 0.5208 0.5200 0.5192 0.5192 0.5161 0.5129 0.5114 0.5074 0.5020 0.5004 0.5012 0.5012 0.4996 0.4988 0.4988 0.4996 0.4988 0.4980 0.4988 0.4980 0.4973 0.4965 0.4965 0.4965 0.4965 0.4973 0.4957 0.4957 0.4957 0.4965 0.4973 0.4980 0.4996 0.5012 0.5027 0.5043 0.5059 0.5059 0.5059 0.5059 0.5059 0.5051 0.5043 0.5027 0.5020 0.5012 0.5012 0.5035 0.5051 0.5059 0.5074 0.5098 0.5114 0.5121 0.5145 0.5168 0.5184 0.5200 0.5192 0.5176 0.5168 0.5168 0.5145 0.5114 0.5098 0.5074 0.5051 0.5012 0.4973 0.4941 0.4910 0.4894 0.4886 0.4902 0.4926 0.4949 0.4973 0.4980 0.4988 0.5020 0.5051 0.5082 0.5098 0.5121 0.5129 0.5137 0.5145 0.5161 0.5153 0.5137 0.5114 0.5090 0.5074 0.5051 0.5020 0.4980 0.4949 0.4918 0.4902 0.4894 0.4902 0.4918 0.4933 0.4957 0.4996 0.5012 0.5035 0.5043 0.5067 0.5082 0.5082 0.5074 0.5074 0.5082 0.5090 0.5090 0.5098 0.5098 0.5082 0.5051 0.5027 0.5012 0.4996 0.4973 0.4933 0.4910 0.4886 0.4871 0.4871 0.4871 0.4879 0.4871 0.4855 0.4832 0.4816 0.4816 0.4792 0.4761 0.4753 0.4745 0.4730 0.4706 0.4683 0.4675
0.5951 0.5959 0.5975 0.5998 0.6006 0.6006 0.6006 0.6014 0.6022 0.6030 0.6045 0.6045 0.6053 0.6053 0.6045 0.6038 0.6030 0.6022 0.6022 0.6014 0.6006 0.5998 0.5975 0.5951 0.5944 0.5944 0.5951 0.5959 0.5967 0.5983 0.5991 0.5991 0.5983 0.5975 0.5959 0.5951 0.5944 0.5936 0.5920 0.5904 0.5889 0.5873 0.5873 0.5865 0.5857 0.5850 0.5834 0.5810 0.5779 0.5756 0.5740 0.5740 0.5732 0.5717 0.5709 0.5701 0.5693 0.5677 0.5638 0.5615 0.5615 0.5607 0.5591 0.5576 0.5568 0.5544 0.5513 0.5482 0.5458 0.5442 0.5419 0.5419 0.5435 0.5442 0.5450 0.5442 0.5403 0.5364 0.5348 0.5348 0.5333 0.5309 0.5286 0.5270 0.5255 0.5247 0.5239 0.5231 0.5208 0.5192 0.5176 0.5168 0.5161 0.5176 0.5215 0.5239 0.5262 0.5286 0.5278 0.5255 0.5239 0.5208 0.5184 0.5168 0.5129 0.5067 0.5020 0.5020 0.5012 0.4996 0.5004 0.5012 0.5004 0.4996 0.4988 0.4996 0.4988 0.4980 0.4973 0.4965 0.4965 0.4965 0.4957 0.4957 0.4941 0.4941 0.4941 0.4941 0.4941 0.4957 0.4973 0.4980 0.4996 0.5004 0.5012 0.5027 0.5027 0.5027 0.5027 0.5027 0.5012 0.4996 0.4988 0.5004 0.5012 0.5027 0.5043 0.5067 0.5082 0.5090 0.5098 0.5121 0.5145 0.5168 0.5176 0.5161 0.5153 0.5137 0.5121 0.5098 0.5074 0.5059 0.5043 0.5020 0.4988 0.4957 0.4926 0.4902 0.4879 0.4879 0.4886 0.4918 0.4933 0.4949 0.4965 0.4988 0.5020 0.5043 0.5067 0.5090 0.5114 0.5121 0.5121 0.5129 0.5137 0.5137 0.5129 0.5106 0.5090 0.5067 0.5051 0.5035 0.5012 0.4957 0.4918 0.4894 0.4886 0.4894 0.4902 0.4933 0.4949 0.4973 0.4996 0.5004 0.5020 0.5035 0.5059 0.5067 0.5051 0.5043 0.5043 0.5051 0.5059 0.5067 0.5059 0.5035 0.5020 0.5004 0.4980 0.4957 0.4933 0.4902 0.4879 0.4855 0.4839 0.4832 0.4832 0.4832 0.4839 0.4832 0.4816 0.4792 0.4785 0.4761 0.4745 0.4738 0.4738 0.4722 0.4699 0.4675 0.4667
0.5944 0.5959 0.5975 0.5991 0.5991 0.5991 0.5991 0.5991 0.6006 0.6022 0.6030 0.6038 0.6045 0.6038 0.6030 0.6022 0.6014 0.6014 0.6014 0.6006 0.6006 0.5998 0.5983 0.5967 0.5959 0.5959 0.5959 0.5967 0.5975 0.5975 0.5983 0.5975 0.5959 0.5951 0.5944 0.5928 0.5920 0.5912 0.5904 0.5897 0.5873 0.5857 0.5850 0.5850 0.5842 0.5834 0.5834 0.5810 0.5787 0.5756 0.5732 0.5724 0.5717 0.5701 0.5685 0.5670 0.5662 0.5638 0.5615 0.5599 0.5583 0.5568 0.5552 0.5552 0.5536 0.5505 0.5482 0.5450 0.5435 0.5419 0.5403 0.5395 0.5403 0.5419 0.5427 0.5427 0.5395 0.5356 0.5341 0.5325 0.5301 0.5278 0.5262 0.5255 0.5239 0.5231 0.5223 0.5215 0.5200 0.5184 0.5168 0.5168 0.5168 0.5200 0.5247 0.5278 0.5301 0.5317 0.5325 0.5317 0.5294 0.5255 0.5247 0.5247 0.5231 0.5168 0.5137 0.5121 0.5098 0.5074 0.5059 0.5067 0.5043 0.5035 0.5043 0.5027 0.5012 0.5004 0.5004 0.4996 0.4996 0.4996 0.4980 0.4973 0.4957 0.4949 0.4941 0.4949 0.4941 0.4949 0.4933 0.4941 0.4949 0.4957 0.4965 0.4973 0.4988 0.4996 0.5004 0.5004 0.4996 0.4988 0.4988 0.4996 0.5012 0.5012 0.5027 0.5035 0.5043 0.5043 0.5059 0.5082 0.5114 0.5145 0.5161 0.5153 0.5153 0.5137 0.5106 0.5074 0.5051 0.5012 0.5004 0.4996 0.4980 0.4949 0.4926 0.4894 0.4879 0.4879 0.4894 0.4910 0.4933 0.4949 0.4973 0.5004 0.5027 0.5051 0.5067 0.5090 0.5106 0.5114 0.5114 0.5121 0.5121 0.5114 0.5098 0.5090 0.5067 0.5051 0.5035 0.5035 0.5027 0.4996 0.4941 0.4902 0.4894 0.4879 0.4886 0.4902 0.4926 0.4941 0.4965 0.4980 0.4996 0.5020 0.5035 0.5043 0.5027 0.5012 0.5012 0.5020 0.5027 0.5020 0.5012 0.4996 0.4988 0.4973 0.4941 0.4910 0.4886 0.4863 0.4839 0.4824 0.4808 0.4792 0.4792 0.4785 0.4792 0.4800 0.4792 0.4769 0.4753 0.4745 0.4738 0.4722 0.4722 0.4714 0.4699 0.4675 0.4659
0.5936 0.5944 0.5967 0.5975 0.5975 0.5967 0.5975 0.5975 0.5991 0.6006 0.6022 0.6038 0.6030 0.6030 0.6022 0.6014 0.6006 0.6006 0.6006 0.5998 0.5991 0.5991 0.5991 0.5983 0.5975 0.5967 0.5967 0.5967 0.5967 0.5967 0.5959 0.5951 0.5944 0.5928 0.5920 0.5912 0.5904 0.5889 0.5873 0.5865 0.5857 0.5850 0.5842 0.5842 0.5842 0.5834 0.5826 0.5818 0.5795 0.5771 0.5748 0.5732 0.5717 0.5685 0.5662 0.5646 0.5630 0.5623 0.5607 0.5576 0.5552 0.5536 0.5505 0.5505 0.5497 0.5474 0.5458 0.5435 0.5419 0.5403 0.5388 0.5380 0.5388 0.5388 0.5395 0.5388 0.5364 0.5341 0.5317 0.5294 0.5270 0.5255 0.5239 0.5223 0.5223 0.5215 0.5208 0.5200 0.5192 0.5176 0.5176 0.5192 0.5208 0.5239 0.5286 0.5317 0.5341 0.5348 0.5372 0.5380 0.5356 0.5325 0.5309 0.5325 0.5325 0.5301 0.5286 0.5270 0.5255 0.5231 0.5215 0.5168 0.5153 0.5161 0.5137 0.5106 0.5074 0.5074 0.5067 0.5059 0.5059 0.5051 0.5043 0.5020 0.4996 0.4988 0.4980 0.4980 0.4965 0.4949 0.4933 0.4926 0.4933 0.4926 0.4926 0.4926 0.4941 0.4965 0.4973 0.4980 0.4973 0.4957 0.4965 0.4980 0.5004 0.5004 0.5004 0.5004 0.5004 0.5004 0.5012 0.5043 0.5074 0.5114 0.5137 0.5145 0.5129 0.5106 0.5082 0.5051 0.5035 0.5012 0.4988 0.4973 0.4957 0.4941 0.4910 0.4894 0.4879 0.4879 0.4902 0.4926 0.4941 0.4957 0.4988 0.5012 0.5035 0.5051 0.5074 0.5090 0.5098 0.5098 0.5098 0.5098 0.5090 0.5082 0.5067 0.5059 0.5059 0.5043 0.5035 0.5035 0.5043 0.5004 0.4957 0.4910 0.4879 0.4855 0.4863 0.4871 0.4894 0.4918 0.4933 0.4957 0.4980 0.4988 0.5004 0.5004 0.4996 0.4988 0.4980 0.4980 0.4980 0.4980 0.4965 0.4965 0.4957 0.4933 0.4910 0.4879 0.4855 0.4824 0.4800 0.4792 0.4777 0.4769 0.4761 0.4753 0.4761 0.4761 0.4761 0.4753 0.4745 0.4738 0.4722 0.4706 0.4699 0.4691 0.4683 0.4667 0.4659
0.5928 0.5936 0.5951 0.5959 0.5959 0.5959 0.5959 0.5967 0.5975 0.5998 0.6014 0.6006 0.6006 0.5998 0.6006 0.6006 0.5998 0.5998 0.5998 0.5991 0.5983 0.5983 0.5983 0.5983 0.5975 0.5967 0.5959 0.5944 0.5944 0.5944 0.5936 0.5936 0.5928 0.5912 0.5904 0.5889 0.5881 0.5857 0.5850 0.5842 0.5834 0.5826 0.5834 0.5842 0.5842 0.5834 0.5826 0.5826 0.5818 0.5803 0.5779 0.5756 0.5732 0.5685 0.5646 0.5630 0.5615 0.5599 0.5576 0.5544 0.5521 0.5489 0.5474 0.5458 0.5458 0.5442 0.5427 0.5419 0.5403 0.5388 0.5380 0.5372 0.5364 0.5356 0.5348 0.5341 0.5325 0.5309 0.5301 0.5278 0.5255 0.5231 0.5223 0.5215 0.5215 0.5215 0.5215 0.5208 0.5208 0.5208 0.5215 0.5231 0.5255 0.5294 0.5333 0.5372 0.5380 0.5395 0.5403 0.5403 0.5388 0.5388 0.5388 0.5411 0.5442 0.5450 0.5435 0.5435 0.5419 0.5419 0.5380 0.5341 0.5301 0.5270 0.5239 0.5176 0.5161 0.5145 0.5145 0.5121 0.5121 0.5114 0.5098 0.5067 0.5051 0.5051 0.5043 0.4996 0.4973 0.4965 0.4949 0.4941 0.4926 0.4910 0.4902 0.4910 0.4918 0.4918 0.4926 0.4933 0.4933 0.4933 0.4941 0.4957 0.4973 0.4973 0.4965 0.4973 0.4980 0.4980 0.4988 0.5020 0.5051 0.5074 0.5082 0.5090 0.5082 0.5074 0.5059 0.5051 0.5051 0.5035 0.5004 0.4965 0.4933 0.4918 0.4902 0.4886 0.4879 0.4886 0.4902 0.4926 0.4941 0.4965 0.4988 0.5004 0.5020 0.5035 0.5051 0.5059 0.5067 0.5067 0.5067 0.5051 0.5051 0.5051 0.5051 0.5051 0.5051 0.5043 0.5043 0.5035 0.5020 0.4996 0.4957 0.4910 0.4863 0.4839 0.4832 0.4839 0.4863 0.4886 0.4910 0.4933 0.4941 0.4965 0.4980 0.4996 0.4988 0.4957 0.4941 0.4926 0.4926 0.4926 0.4926 0.4926 0.4918 0.4902 0.4879 0.4847 0.4808 0.4777 0.4761 0.4745 0.4738 0.4730 0.4722 0.4722 0.4722 0.4722 0.4722 0.4722 0.4714 0.4706 0.4691 0.4683 0.4667 0.4667 0.4659 0.4652 0.4636
0.5928 0.5936 0.5944 0.5951 0.5951 0.5944 0.5944 0.5951 0.5959 0.5975 0.5983 0.5975 0.5967 0.5967 0.5975 0.5983 0.5991 0.5991 0.5983 0.5975 0.5975 0.5975 0.5975 0.5967 0.5967 0.5951 0.5936 0.5928 0.5920 0.5920 0.5904 0.5897 0.5889 0.5889 0.5865 0.5850 0.5834 0.5826 0.5818 0.5818 0.5810 0.5810 0.5818 0.5826 0.5834 0.5826 0.5818 0.5826 0.5826 0.5818 0.5795 0.5764 0.5732 0.5693 0.5662 0.5646 0.5615 0.5583 0.5552 0.5521 0.5497 0.5482 0.5458 0.5442 0.5427 0.5419 0.5419 0.5411 0.5388 0.5380 0.5372 0.5356 0.5348 0.5333 0.5317 0.5309 0.5294 0.5294 0.5286 0.5270 0.5255 0.5231 0.5223 0.5223 0.5231 0.5239 0.5247 0.5247 0.5247 0.5255 0.5262 0.5278 0.5309 0.5341 0.5380 0.5403 0.5435 0.5442 0.5450 0.5442 0.5458 0.5497 0.5505 0.5521 0.5544 0.5576 0.5560 0.5544 0.5536 0.5521 0.5505 0.5466 0.5419 0.5356 0.5317 0.5286 0.5247 0.5231 0.5208 0.5184 0.5184 0.5176 0.5168 0.5145 0.5129 0.5114 0.5090 0.5051 0.4996 0.4973 0.4957 0.4949 0.4941 0.4926 0.4910 0.4910 0.4910 0.4902 0.4902 0.4902 0.4910 0.4910 0.4918 0.4926 0.4933 0.4941 0.4941 0.4941 0.4941 0.4949 0.4973 0.4996 0.5027 0.5043 0.5043 0.5043 0.5051 0.5051 0.5043 0.5035 0.5051 0.5035 0.4996 0.4957 0.4926 0.4902 0.4894 0.4886 0.4886 0.4894 0.4902 0.4918 0.4941 0.4965 0.4980 0.4996 0.5012 0.5020 0.5035 0.5035 0.5043 0.5051 0.5035 0.5027 0.5027 0.5027 0.5027 0.5035 0.5027 0.5027 0.5027 0.5027 0.5020 0.4988 0.4973 0.4926 0.4871 0.4839 0.4816 0.4816 0.4839 0.4863 0.4886 0.4902 0.4918 0.4933 0.4957 0.4973 0.4965 0.4933 0.4918 0.4894 0.4886 0.4886 0.4879 0.4879 0.4871 0.4855 0.4824 0.4792 0.4769 0.4738 0.4722 0.4714 0.4714 0.4706 0.4699 0.4691 0.4706 0.4699 0.4691 0.4691 0.4683 0.4675 0.4659 0.4644 0.4644 0.4636 0.4628 0.4620 0.4612
0.5928 0.5936 0.5944 0.5944 0.5936 0.5928 0.5928 0.5928 0.5936 0.5959 0.5959 0.5951 0.5944 0.5936 0.5951 0.5967 0.5975 0.5975 0.5975 0.5975 0.5967 0.5959 0.5959 0.5951 0.5944 0.5936 0.5928 0.5912 0.5904 0.5897 0.5889 0.5865 0.5865 0.5857 0.5842 0.5818 0.5810 0.5803 0.5803 0.5787 0.5787 0.5787 0.5795 0.5803 0.5810 0.5810 0.5810 0.5818 0.5818 0.5810 0.5787 0.5748 0.5724 0.5701 0.5677 0.5654 0.5630 0.5607 0.5576 0.5544 0.5505 0.5489 0.5466 0.5435 0.5419 0.5411 0.5395 0.5380 0.5364 0.5356 0.5348 0.5341 0.5333 0.5317 0.5294 0.5294 0.5286 0.5286 0.5294 0.5301 0.5286 0.5278 0.5262 0.5262 0.5262 0.5270 0.5278 0.5278 0.5294 0.5301 0.5317 0.5325 0.5341 0.5364 0.5395 0.5442 0.5489 0.5521 0.5529 0.5536 0.5552 0.5607 0.5615 0.5607 0.5623 0.5638 0.5638 0.5630 0.5615 0.5615 0.5591 0.5560 0.5497 0.5427 0.5395 0.5372 0.5341 0.5309 0.5270 0.5247 0.5247 0.5247 0.5255 0.5239 0.5192 0.5161 0.5129 0.5090 0.5043 0.5004 0.4988 0.4973 0.4957 0.4949 0.4941 0.4941 0.4926 0.4918 0.4902 0.4902 0.4894 0.4894 0.4894 0.4902 0.4918 0.4918 0.4918 0.4918 0.4918 0.4918 0.4933 0.4957 0.4980 0.5004 0.5004 0.5012 0.5020 0.5027 0.5020 0.5004 0.5012 0.5012 0.4988 0.4957 0.4926 0.4894 0.4879 0.4879 0.4879 0.4886 0.4894 0.4902 0.4933 0.4957 0.4980 0.4996 0.5004 0.5004 0.5012 0.5020 0.5027 0.5027 0.5027 0.5020 0.5020 0.5020 0.5020 0.5012 0.5012 0.5020 0.5027 0.5027 0.5012 0.4996 0.4988 0.4949 0.4894 0.4847 0.4816 0.4816 0.4824 0.4839 0.4847 0.4855 0.4879 0.4902 0.4918 0.4926 0.4933 0.4933 0.4910 0.4894 0.4871 0.4855 0.4839 0.4832 0.4824 0.4808 0.4792 0.4769 0.4745 0.4722 0.4699 0.4691 0.4683 0.4675 0.4667 0.4667 0.4667 0.4659 0.4652 0.4659 0.4659 0.4652 0.4636 0.4620 0.4612 0.4605 0.4605 0.4597 0.4597
0.5904 0.5920 0.5928 0.5928 0.5928 0.5912 0.5912 0.5920 0.5928 0.5936 0.5944 0.5936 0.5936 0.5936 0.5944 0.5951 0.5959 0.5967 0.5983 0.5983 0.5967 0.5959 0.5951 0.5951 0.5944 0.5944 0.5936 0.5928 0.5897 0.5889 0.5881 0.5865 0.5857 0.5850 0.5826 0.5818 0.5810 0.5803 0.5787 0.5771 0.5771 0.5779 0.5779 0.5787 0.5795 0.5803 0.5818 0.5818 0.5803 0.5795 0.5779 0.5748 0.5724 0.5709 0.5685 0.5654 0.5638 0.5630 0.5607 0.5576 0.5536 0.5505 0.5466 0.5442 0.5411 0.5388 0.5364 0.5356 0.5348 0.5341 0.5356 0.5348 0.5341 0.5325 0.5317 0.5301 0.5317 0.5325 0.5333 0.5348 0.5356 0.5348 0.5317 0.5301 0.5301 0.5301 0.5317 0.5317 0.5325 0.5333 0.5341 0.5348 0.5356 0.5372 0.5419 0.5482 0.5536 0.5560 0.5583 0.5623 0.5670 0.5685 0.5701 0.5717 0.5709 0.5701 0.5709 0.5701 0.5685 0.5662 0.5638 0.5623 0.5568 0.5497 0.5458 0.5419 0.5395 0.5348 0.5317 0.5325 0.5325 0.5309 0.5294 0.5270 0.5223 0.5192 0.5153 0.5121 0.5082 0.5051 0.5027 0.4996 0.4980 0.4973 0.4980 0.4988 0.4980 0.4941 0.4933 0.4926 0.4910 0.4894 0.4879 0.4886 0.4886 0.4894 0.4894 0.4894 0.4902 0.4910 0.4910 0.4918 0.4933 0.4957 0.4957 0.4965 0.4980 0.4988 0.4996 0.4996 0.4980 0.4973 0.4957 0.4933 0.4910 0.4894 0.4863 0.4863 0.4863 0.4871 0.4879 0.4886 0.4918 0.4949 0.4965 0.4980 0.4988 0.4996 0.5004 0.5004 0.5012 0.5020 0.5020 0.5012 0.5012 0.5012 0.5004 0.5004 0.5004 0.5012 0.5020 0.5004 0.4988 0.4988 0.4973 0.4949 0.4926 0.4879 0.4847 0.4824 0.4816 0.4808 0.4808 0.4832 0.4855 0.4871 0.4879 0.4894 0.4918 0.4910 0.4894 0.4879 0.4855 0.4832 0.4816 0.4792 0.4785 0.4777 0.4761 0.4745 0.4730 0.4706 0.4691 0.4675 0.4667 0.4652 0.4644 0.4636 0.4628 0.4620 0.4620 0.4628 0.4628 0.4628 0.4620 0.4605 0.4605 0.4605 0.4597 0.4597 0.4597
0.5897 0.5904 0.5912 0.5912 0.5912 0.5912 0.5912 0.5912 0.5920 0.5920 0.5928 0.5936 0.5928 0.5936 0.5944 0.5944 0.5951 0.5967 0.5983 0.5983 0.5975 0.5967 0.5967 0.5959 0.5959 0.5951 0.5951 0.5928 0.5904 0.5889 0.5873 0.5850 0.5834 0.5818 0.5803 0.5803 0.5803 0.5779 0.5771 0.5771 0.5771 0.5779 0.5779 0.5787 0.5795 0.5803 0.5803 0.5795 0.5779 0.5771 0.5764 0.5748 0.5724 0.5693 0.5662 0.5646 0.5630 0.5623 0.5599 0.5560 0.5536 0.5497 0.5458 0.5435 0.5403 0.5380 0.5364 0.5364 0.5372 0.5395 0.5395 0.5388 0.5372 0.5364 0.5341 0.5356 0.5364 0.5380 0.5380 0.5388 0.5411 0.5395 0.5380 0.5348 0.5333 0.5341 0.5364 0.5364 0.5348 0.5364 0.5388 0.5403 0.5419 0.5427 0.5474 0.5529 0.5568 0.5591 0.5630 0.5685 0.5732 0.5748 0.5771 0.5779 0.5771 0.5764 0.5748 0.5740 0.5717 0.5685 0.5677 0.5662 0.5630 0.5583 0.5529 0.5474 0.5450 0.5395 0.5372 0.5364 0.5364 0.5348 0.5309 0.5270 0.5231 0.5200 0.5176 0.5137 0.5106 0.5074 0.5043 0.5004 0.4988 0.5012 0.5027 0.5027 0.4996 0.4973 0.4965 0.4949 0.4933 0.4902 0.4886 0.4879 0.4879 0.4871 0.4871 0.4879 0.4894 0.4894 0.4894 0.4886 0.4902 0.4910 0.4918 0.4933 0.4949 0.4965 0.4965 0.4957 0.4941 0.4933 0.4918 0.4910 0.4894 0.4871 0.4855 0.4847 0.4847 0.4863 0.4871 0.4879 0.4910 0.4933 0.4949 0.4957 0.4973 0.4980 0.4980 0.4980 0.4988 0.4996 0.4996 0.4996 0.4988 0.4980 0.4980 0.4988 0.4988 0.4996 0.4988 0.4957 0.4949 0.4949 0.4949 0.4949 0.4933 0.4910 0.4863 0.4832 0.4808 0.4785 0.4792 0.4808 0.4832 0.4832 0.4847 0.4863 0.4863 0.4863 0.4855 0.4855 0.4839 0.4816 0.4792 0.4769 0.4761 0.4745 0.4730 0.4714 0.4706 0.4699 0.4683 0.4675 0.4659 0.4652 0.4644 0.4628 0.4628 0.4620 0.4612 0.4620 0.4628 0.4628 0.4620 0.4612 0.4612 0.4620 0.4612 0.4605 0.4597
0.5881 0.5897 0.5904 0.5904 0.5904 0.5904 0.5897 0.5897 0.5897 0.5904 0.5920 0.5928 0.5936 0.5944 0.5944 0.5944 0.5944 0.5959 0.5975 0.5983 0.5975 0.5967 0.5959 0.5959 0.5959 0.5959 0.5944 0.5928 0.5904 0.5881 0.5857 0.5842 0.5826 0.5803 0.5787 0.5787 0.5771 0.5764 0.5756 0.5756 0.5771 0.5771 0.5779 0.5787 0.5795 0.5795 0.5803 0.5779 0.5756 0.5740 0.5732 0.5724 0.5701 0.5677 0.5654 0.5630 0.5615 0.5591 0.5560 0.5529 0.5505 0.5466 0.5435 0.5419 0.5403 0.5395 0.5388 0.5395 0.5435 0.5458 0.5450 0.5427 0.5411 0.5395 0.5388 0.5411 0.5427 0.5427 0.5435 0.5442 0.5435 0.5427 0.5403 0.5388 0.5380 0.5388 0.5395 0.5403 0.5395 0.5388 0.5419 0.5450 0.5482 0.5505 0.5552 0.5599 0.5630 0.5662 0.5693 0.5740 0.5764 0.5787 0.5795 0.5779 0.5771 0.5764 0.5748 0.5732 0.5717 0.5701 0.5685 0.5677 0.5646 0.5607 0.5552 0.5497 0.5458 0.5427 0.5403 0.5380 0.5380 0.5348 0.5301 0.5262 0.5231 0.5200 0.5168 0.5137 0.5082 0.5051 0.5043 0.5027 0.5035 0.5051 0.5067 0.5051 0.5035 0.5020 0.4996 0.4973 0.4949 0.4933 0.4918 0.4910 0.4894 0.4879 0.4863 0.4863 0.4871 0.4871 0.4863 0.4863 0.4871 0.4886 0.4894 0.4902 0.4910 0.4918 0.4918 0.4910 0.4902 0.4894 0.4894 0.4886 0.4871 0.4855 0.4847 0.4839 0.4847 0.4855 0.4863 0.4871 0.4894 0.4918 0.4926 0.4933 0.4941 0.4949 0.4949 0.4957 0.4965 0.4973 0.4973 0.4973 0.4965 0.4957 0.4957 0.4965 0.4973 0.4973 0.4957 0.4926 0.4918 0.4926 0.4926 0.4926 0.4918 0.4902 0.4879 0.4839 0.4792 0.4777 0.4777 0.4792 0.4792 0.4785 0.4800 0.4816 0.4816 0.4816 0.4824 0.4824 0.4800 0.4777 0.4761 0.4745 0.4738 0.4722 0.4699 0.4691 0.4683 0.4675 0.4667 0.4667 0.4667 0.4659 0.4652 0.4644 0.4636 0.4636 0.4628 0.4628 0.4628 0.4628 0.4628 0.4620 0.4628 0.4628 0.4620 0.4605 0.4589
0.5873 0.5881 0.5889 0.5889 0.5881 0.5881 0.5881 0.5881 0.5889 0.5897 0.5904 0.5928 0.5944 0.5951 0.5944 0.5936 0.5944 0.5959 0.5975 0.5983 0.5975 0.5959 0.5951 0.5944 0.5944 0.5944 0.5928 0.5912 0.5889 0.5873 0.5857 0.5834 0.5818 0.5803 0.5787 0.5764 0.5748 0.5724 0.5724 0.5724 0.5756 0.5787 0.5787 0.5787 0.5803 0.5810 0.5810 0.5779 0.5748 0.5732 0.5717 0.5701 0.5685 0.5662 0.5638 0.5623 0.5583 0.5552 0.5529 0.5505 0.5482 0.5458 0.5435 0.5419 0.5419 0.5419 0.5419 0.5442 0.5474 0.5489 0.5482 0.5466 0.5466 0.5466 0.5474 0.5466 0.5466 0.5450 0.5458 0.5474 0.5466 0.5458 0.5427 0.5411 0.5419 0.5427 0.5442 0.5442 0.5435 0.5435 0.5458 0.5474 0.5497 0.5544 0.5599 0.5654 0.5693 0.5724 0.5740 0.5764 0.5779 0.5795 0.5787 0.5771 0.5756 0.5740 0.5724 0.5717 0.5701 0.5693 0.5670 0.5654 0.5630 0.5583 0.5536 0.5489 0.5442 0.5403 0.5372 0.5348 0.5348 0.5309 0.5286 0.5270 0.5239 0.5200 0.5153 0.5114 0.5067 0.5035 0.5035 0.5043 0.5059 0.5082 0.5090 0.5090 0.5074 0.5059 0.5035 0.5027 0.5027 0.4996 0.4957 0.4941 0.4926 0.4910 0.4902 0.4886 0.4871 0.4855 0.4847 0.4847 0.4855 0.4863 0.4863 0.4871 0.4879 0.4879 0.4879 0.4863 0.4855 0.4863 0.4855 0.4855 0.4855 0.4847 0.4847 0.4847 0.4847 0.4847 0.4847 0.4855 0.4871 0.4886 0.4894 0.4910 0.4918 0.4926 0.4933 0.4941 0.4941 0.4957 0.4965 0.4965 0.4949 0.4941 0.4933 0.4941 0.4941 0.4933 0.4926 0.4910 0.4894 0.4902 0.4902 0.4902 0.4894 0.4886 0.4871 0.4839 0.4808 0.4785 0.4769 0.4761 0.4769 0.4761 0.4769 0.4777 0.4792 0.4800 0.4800 0.4792 0.4769 0.4753 0.4738 0.4730 0.4722 0.4706 0.4691 0.4675 0.4659 0.4659 0.4659 0.4675 0.4675 0.4675 0.4659 0.4659 0.4652 0.4659 0.4652 0.4644 0.4636 0.4636 0.4636 0.4652 0.4652 0.4644 0.4636 0.4628 0.4620
0.5857 0.5865 0.5873 0.5873 0.5873 0.5865 0.5865 0.5881 0.5889 0.5904 0.5912 0.5928 0.5944 0.5951 0.5944 0.5951 0.5967 0.5983 0.5983 0.5983 0.5975 0.5951 0.5936 0.5936 0.5936 0.5928 0.5912 0.5904 0.5889 0.5881 0.5865 0.5834 0.5810 0.5787 0.5771 0.5740 0.5709 0.5693 0.5693 0.5724 0.5756 0.5795 0.5803 0.5810 0.5818 0.5818 0.5818 0.5787 0.5756 0.5740 0.5709 0.5685 0.5670 0.5646 0.5630 0.5591 0.5560 0.5536 0.5521 0.5505 0.5497 0.5482 0.5450 0.5442 0.5450 0.5466 0.5474 0.5489 0.5497 0.5505 0.5521 0.5521 0.5529 0.5529 0.5536 0.5536 0.5536 0.5513 0.5505 0.5513 0.5513 0.5497 0.5474 0.5450 0.5466 0.5489 0.5497 0.5513 0.5505 0.5505 0.5505 0.5505 0.5529 0.5591 0.5646 0.5701 0.5740 0.5756 0.5764 0.5771 0.5787 0.5787 0.5787 0.5764 0.5748 0.5724 0.5709 0.5693 0.5677 0.5670 0.5654 0.5623 0.5607 0.5568 0.5513 0.5466 0.5419 0.5380 0.5348 0.5294 0.5294 0.5270 0.5255 0.5231 0.5208 0.5176 0.5129 0.5090 0.5051 0.5035 0.5035 0.5059 0.5098 0.5114 0.5121 0.5121 0.5129 0.5121 0.5106 0.5098 0.5082 0.5043 0.5004 0.4965 0.4949 0.4941 0.4957 0.4957 0.4926 0.4871 0.4863 0.4863 0.4847 0.4847 0.4847 0.4855 0.4855 0.4855 0.4847 0.4839 0.4839 0.4847 0.4847 0.4839 0.4839 0.4847 0.4847 0.4847 0.4839 0.4839 0.4839 0.4847 0.4855 0.4863 0.4871 0.4879 0.4886 0.4902 0.4926 0.4933 0.4941 0.4957 0.4965 0.4957 0.4949 0.4933 0.4926 0.4933 0.4926 0.4910 0.4894 0.4879 0.4871 0.4863 0.4863 0.4863 0.4863 0.4855 0.4839 0.4824 0.4800 0.4785 0.4761 0.4753 0.4753 0.4753 0.4745 0.4753 0.4769 0.4769 0.4769 0.4761 0.4753 0.4738 0.4730 0.4722 0.4714 0.4706 0.4675 0.4667 0.4659 0.4667 0.4675 0.4683 0.4699 0.4699 0.4683 0.4675 0.4675 0.4675 0.4675 0.4675 0.4683 0.4699 0.4714 0.4714 0.4706 0.4691 0.4675 0.4675 0.4683
0.5850 0.5857 0.5850 0.5850 0.5850 0.5850 0.5857 0.5865 0.5889 0.5912 0.5920 0.5928 0.5936 0.5936 0.5936 0.5951 0.5975 0.5983 0.5983 0.5975 0.5951 0.5928 0.5912 0.5912 0.5920 0.5912 0.5912 0.5904 0.5897 0.5881 0.5865 0.5842 0.5795 0.5771 0.5740 0.5709 0.5677 0.5677 0.5701 0.5724 0.5771 0.5803 0.5818 0.5826 0.5834 0.5834 0.5826 0.5795 0.5764 0.5724 0.5693 0.5670 0.5654 0.5638 0.5623 0.5591 0.5560 0.5544 0.5529 0.5521 0.5513 0.5505 0.5497 0.5497 0.5513 0.5521 0.5529 0.5536 0.5536 0.5536 0.5544 0.5568 0.5583 0.5599 0.5591 0.5583 0.5591 0.5576 0.5560 0.5544 0.5536 0.5521 0.5497 0.5497 0.5505 0.5529 0.5552 0.5576 0.5583 0.5576 0.5552 0.5568 0.5615 0.5654 0.5701 0.5748 0.5779 0.5787 0.5795 0.5795 0.5787 0.5779 0.5771 0.5764 0.5732 0.5709 0.5685 0.5670 0.5662 0.5646 0.5630 0.5607 0.5576 0.5521 0.5482 0.5450 0.5395 0.5364 0.5317 0.5270 0.5270 0.5231 0.5200 0.5176 0.5161 0.5145 0.5106 0.5067 0.5051 0.5043 0.5074 0.5090 0.5121 0.5168 0.5184 0.5200 0.5200 0.5200 0.5161 0.5121 0.5090 0.5051 0.5020 0.5004 0.4988 0.4996 0.5035 0.5051 0.5004 0.4965 0.4926 0.4886 0.4863 0.4847 0.4855 0.4855 0.4855 0.4855 0.4855 0.4839 0.4839 0.4839 0.4832 0.4832 0.4832 0.4839 0.4839 0.4839 0.4832 0.4824 0.4824 0.4824 0.4839 0.4839 0.4839 0.4839 0.4855 0.4886 0.4910 0.4918 0.4933 0.4941 0.4949 0.4941 0.4926 0.4910 0.4902 0.4902 0.4894 0.4879 0.4863 0.4847 0.4839 0.4832 0.4824 0.4824 0.4824 0.4816 0.4800 0.4792 0.4785 0.4769 0.4753 0.4745 0.4745 0.4730 0.4722 0.4730 0.4738 0.4738 0.4730 0.4722 0.4714 0.4722 0.4714 0.4699 0.4691 0.4675 0.4675 0.4675 0.4691 0.4699 0.4706 0.4714 0.4722 0.4722 0.4706 0.4699 0.4699 0.4699 0.4706 0.4706 0.4722 0.4745 0.4745 0.4753 0.4738 0.4730 0.4730 0.4722 0.4730
0.5842 0.5850 0.5842 0.5834 0.5826 0.5834 0.5834 0.5865 0.5881 0.5897 0.5912 0.5920 0.5928 0.5920 0.5920 0.5936 0.5951 0.5959 0.5959 0.5951 0.5936 0.5920 0.5904 0.5897 0.5889 0.5889 0.5889 0.5897 0.5897 0.5873 0.5850 0.5826 0.5795 0.5771 0.5740 0.5701 0.5670 0.5677 0.5693 0.5724 0.5756 0.5787 0.5810 0.5826 0.5842 0.5834 0.5810 0.5787 0.5756 0.5717 0.5685 0.5662 0.5638 0.5638 0.5623 0.5599 0.5583 0.5560 0.5552 0.5536 0.5521 0.5513 0.5529 0.5544 0.5560 0.5576 0.5576 0.5568 0.5568 0.5560 0.5568 0.5591 0.5623 0.5638 0.5638 0.5638 0.5638 0.5638 0.5607 0.5576 0.5552 0.5529 0.5521 0.5521 0.5544 0.5576 0.5623 0.5646 0.5654 0.5638 0.5630 0.5646 0.5677 0.5724 0.5764 0.5803 0.5810 0.5818 0.5810 0.5803 0.5787 0.5771 0.5764 0.5748 0.5724 0.5693 0.5662 0.5654 0.5638 0.5615 0.5591 0.5552 0.5505 0.5474 0.5450 0.5411 0.5356 0.5317 0.5278 0.5239 0.5239 0.5200 0.5168 0.5161 0.5145 0.5121 0.5098 0.5074 0.5074 0.5082 0.5090 0.5114 0.5161 0.5223 0.5270 0.5294 0.5278 0.5262 0.5239 0.5215 0.5161 0.5129 0.5114 0.5129 0.5114 0.5114 0.5121 0.5114 0.5106 0.5059 0.5012 0.4965 0.4933 0.4910 0.4894 0.4894 0.4902 0.4894 0.4879 0.4863 0.4847 0.4839 0.4824 0.4824 0.4816 0.4824 0.4832 0.4832 0.4824 0.4808 0.4808 0.4816 0.4824 0.4816 0.4816 0.4824 0.4839 0.4855 0.4879 0.4894 0.4910 0.4918 0.4918 0.4910 0.4894 0.4886 0.4879 0.4871 0.4863 0.4855 0.4847 0.4832 0.4816 0.4800 0.4792 0.4792 0.4769 0.4753 0.4753 0.4745 0.4745 0.4745 0.4745 0.4745 0.4730 0.4722 0.4714 0.4714 0.4714 0.4714 0.4706 0.4691 0.4683 0.4691 0.4691 0.4683 0.4667 0.4675 0.4691 0.4714 0.4722 0.4738 0.4738 0.4738 0.4738 0.4738 0.4738 0.4738 0.4738 0.4745 0.4745 0.4745 0.4745 0.4753 0.4761 0.4769 0.4761 0.4761 0.4753 0.4761 0.4761
0.5834 0.5842 0.5834 0.5826 0.5818 0.5818 0.5826 0.5842 0.5865 0.5881 0.5897 0.5904 0.5904 0.5912 0.5912 0.5920 0.5928 0.5936 0.5928 0.5912 0.5912 0.5904 0.5897 0.5881 0.5865 0.5865 0.5865 0.5881 0.5881 0.5857 0.5842 0.5818 0.5795 0.5771 0.5740 0.5701 0.5670 0.5662 0.5685 0.5701 0.5732 0.5756 0.5779 0.5810 0.5818 0.5818 0.5795 0.5779 0.5748 0.5709 0.5685 0.5662 0.5646 0.5638 0.5630 0.5599 0.5576 0.5560 0.5544 0.5536 0.5529 0.5529 0.5544 0.5576 0.5591 0.5599 0.5599 0.5599 0.5591 0.5583 0.5583 0.5607 0.5638 0.5670 0.5677 0.5701 0.5701 0.5701 0.5670 0.5615 0.5583 0.5560 0.5552 0.5568 0.5607 0.5646 0.5693 0.5732 0.5756 0.5732 0.5717 0.5724 0.5748 0.5779 0.5803 0.5818 0.5826 0.5826 0.5810 0.5803 0.5779 0.5756 0.5748 0.5740 0.5709 0.5685 0.5662 0.5638 0.5623 0.5583 0.5536 0.5482 0.5450 0.5427 0.5403 0.5356 0.5309 0.5270 0.5239 0.5208 0.5208 0.5176 0.5161 0.5145 0.5129 0.5106 0.5121 0.5137 0.5137 0.5145 0.5137 0.5161 0.5208 0.5278 0.5333 0.5348 0.5333 0.5317 0.5294 0.5294 0.5294 0.5278 0.5262 0.5262 0.5247 0.5231 0.5200 0.5176 0.5145 0.5129 0.5098 0.5059 0.5012 0.4973 0.4957 0.4949 0.4949 0.4941 0.4910 0.4886 0.4879 0.4863 0.4847 0.4824 0.4816 0.4816 0.4824 0.4824 0.4824 0.4816 0.4808 0.4808 0.4808 0.4808 0.4800 0.4808 0.4816 0.4832 0.4847 0.4863 0.4879 0.4886 0.4879 0.4863 0.4863 0.4855 0.4855 0.4855 0.4847 0.4832 0.4816 0.4808 0.4785 0.4769 0.4761 0.4745 0.4738 0.4722 0.4714 0.4714 0.4714 0.4714 0.4730 0.4730 0.4722 0.4714 0.4699 0.4699 0.4699 0.4691 0.4691 0.4683 0.4683 0.4691 0.4691 0.4691 0.4699 0.4714 0.4761 0.4769 0.4785 0.4792 0.4792 0.4785 0.4769 0.4761 0.4777 0.4785 0.4785 0.4777 0.4785 0.4777 0.4769 0.4761 0.4769 0.4785 0.4785 0.4792 0.4792 0.4792 0.4792
0.5810 0.5810 0.5810 0.5810 0.5810 0.5810 0.5818 0.5826 0.5826 0.5842 0.5865 0.5873 0.5889 0.5897 0.5904 0.5912 0.5920 0.5912 0.5904 0.5889 0.5889 0.5881 0.5865 0.5850 0.5850 0.5850 0.5857 0.5873 0.5865 0.5850 0.5834 0.5810 0.5787 0.5764 0.5724 0.5693 0.5670 0.5662 0.5677 0.5693 0.5709 0.5740 0.5771 0.5795 0.5810 0.5803 0.5795 0.5779 0.5748 0.5709 0.5677 0.5654 0.5646 0.5630 0.5615 0.5599 0.5576 0.5560 0.5552 0.5552 0.5552 0.5560 0.5583 0.5607 0.5615 0.5630 0.5630 0.5630 0.5638 0.5630 0.5630 0.5638 0.5670 0.5685 0.5717 0.5732 0.5740 0.5748 0.5724 0.5662 0.5630 0.5615 0.5615 0.5630 0.5662 0.5717 0.5756 0.5810 0.5834 0.5834 0.5795 0.5795 0.5810 0.5834 0.5842 0.5834 0.5842 0.5834 0.5826 0.5795 0.5771 0.5740 0.5732 0.5717 0.5693 0.5677 0.5646 0.5623 0.5607 0.5576 0.5521 0.5466 0.5427 0.5411 0.5380 0.5333 0.5294 0.5247 0.5208 0.5184 0.5184 0.5176 0.5168 0.5161 0.5161 0.5168 0.5176 0.5184 0.5192 0.5192 0.5208 0.5231 0.5278 0.5348 0.5388 0.5388 0.5388 0.5380 0.5372 0.5364 0.5364 0.5356 0.5348 0.5348 0.5333 0.5317 0.5286 0.5247 0.5215 0.5184 0.5153 0.5121 0.5067 0.5035 0.5020 0.4996 0.4988 0.4980 0.4949 0.4926 0.4910 0.4910 0.4871 0.4839 0.4824 0.4824 0.4824 0.4824 0.4824 0.4816 0.4808 0.4808 0.4808 0.4800 0.4792 0.4792 0.4800 0.4800 0.4816 0.4832 0.4855 0.4855 0.4832 0.4824 0.4824 0.4839 0.4839 0.4832 0.4816 0.4800 0.4785 0.4761 0.4753 0.4745 0.4745 0.4738 0.4730 0.4722 0.4714 0.4706 0.4699 0.4699 0.4699 0.4706 0.4714 0.4706 0.4691 0.4691 0.4699 0.4706 0.4714 0.4706 0.4714 0.4738 0.4745 0.4738 0.4745 0.4792 0.4816 0.4824 0.4832 0.4832 0.4832 0.4816 0.4792 0.4792 0.4800 0.4816 0.4816 0.4816 0.4816 0.4800 0.4792 0.4792 0.4808 0.4824 0.4832 0.4839 0.4847 0.4839 0.4839
0.5795 0.5787 0.5779 0.5779 0.5795 0.5803 0.5803 0.5810 0.5818 0.5826 0.5834 0.5850 0.5865 0.5873 0.5889 0.5912 0.5912 0.5897 0.5881 0.5873 0.5857 0.5850 0.5834 0.5826 0.5826 0.5842 0.5857 0.5873 0.5865 0.5842 0.5834 0.5810 0.5787 0.5756 0.5717 0.5685 0.5654 0.5646 0.5662 0.5677 0.5685 0.5709 0.5740 0.5771 0.5787 0.5795 0.5795 0.5779 0.5748 0.5693 0.5662 0.5646 0.5638 0.5623 0.5615 0.5599 0.5576 0.5560 0.5560 0.5568 0.5583 0.5599 0.5599 0.5615 0.5623 0.5646 0.5662 0.5677 0.5685 0.5685 0.5685 0.5685 0.5693 0.5701 0.5717 0.5732 0.5756 0.5771 0.5764 0.5717 0.5701 0.5677 0.5670 0.5677 0.5717 0.5771 0.5842 0.5873 0.5873 0.5873 0.5857 0.5865 0.5873 0.5873 0.5873 0.5873 0.5865 0.5850 0.5826 0.5779 0.5740 0.5724 0.5717 0.5701 0.5685 0.5654 0.5638 0.5615 0.5591 0.5552 0.5521 0.5482 0.5450 0.5419 0.5372 0.5333 0.5278 0.5223 0.5200 0.5192 0.5192 0.5215 0.5223 0.5215 0.5223 0.5208 0.5223 0.5231 0.5239 0.5239 0.5262 0.5294 0.5341 0.5388 0.5427 0.5442 0.5442 0.5450 0.5435 0.5419 0.5403 0.5388 0.5380 0.5380 0.5372 0.5348 0.5325 0.5309 0.5278 0.5223 0.5192 0.5161 0.5121 0.5090 0.5082 0.5067 0.5043 0.5012 0.5012 0.4996 0.4965 0.4949 0.4910 0.4879 0.4847 0.4832 0.4824 0.4824 0.4816 0.4808 0.4800 0.4800 0.4800 0.4800 0.4792 0.4785 0.4785 0.4785 0.4792 0.4808 0.4816 0.4816 0.4800 0.4792 0.4800 0.4800 0.4800 0.4792 0.4785 0.4769 0.4753 0.4738 0.4722 0.4738 0.4738 0.4738 0.4738 0.4738 0.4730 0.4722 0.4714 0.4706 0.4706 0.4722 0.4738 0.4730 0.4722 0.4714 0.4722 0.4745 0.4753 0.4761 0.4777 0.4816 0.4824 0.4808 0.4824 0.4871 0.4894 0.4886 0.4863 0.4863 0.4855 0.4832 0.4808 0.4808 0.4808 0.4824 0.4847 0.4847 0.4855 0.4863 0.4855 0.4855 0.4871 0.4886 0.4902 0.4902 0.4910 0.4902 0.4886
0.5787 0.5779 0.5771 0.5756 0.5771 0.5787 0.5795 0.5803 0.5818 0.5826 0.5834 0.5842 0.5850 0.5850 0.5873 0.5881 0.5889 0.5881 0.5865 0.5850 0.5834 0.5826 0.5818 0.5810 0.5810 0.5834 0.5857 0.5865 0.5857 0.5842 0.5818 0.5803 0.5771 0.5740 0.5709 0.5670 0.5638 0.5638 0.5646 0.5662 0.5685 0.5701 0.5709 0.5740 0.5764 0.5779 0.5764 0.5740 0.5724 0.5693 0.5662 0.5638 0.5630 0.5615 0.5607 0.5599 0.5583 0.5576 0.5576 0.5591 0.5607 0.5607 0.5599 0.5607 0.5623 0.5646 0.5677 0.5701 0.5709 0.5709 0.5701 0.5709 0.5709 0.5717 0.5724 0.5748 0.5764 0.5771 0.5779 0.5771 0.5764 0.5748 0.5740 0.5740 0.5764 0.5834 0.5897 0.5920 0.5920 0.5920 0.5912 0.5904 0.5897 0.5889 0.5873 0.5881 0.5865 0.5850 0.5826 0.5787 0.5740 0.5717 0.5685 0.5677 0.5662 0.5638 0.5623 0.5599 0.5552 0.5513 0.5489 0.5474 0.5435 0.5403 0.5364 0.5325 0.5286 0.5247 0.5239 0.5262 0.5262 0.5286 0.5294 0.5286 0.5270 0.5278 0.5278 0.5286 0.5278 0.5278 0.5294 0.5333 0.5372 0.5411 0.5450 0.5458 0.5458 0.5450 0.5450 0.5427 0.5419 0.5411 0.5403 0.5411 0.5395 0.5364 0.5341 0.5325 0.5294 0.5262 0.5231 0.5200 0.5168 0.5153 0.5137 0.5121 0.5098 0.5082 0.5067 0.5051 0.5027 0.5004 0.4957 0.4926 0.4879 0.4847 0.4832 0.4824 0.4816 0.4808 0.4800 0.4792 0.4792 0.4800 0.4792 0.4785 0.4785 0.4792 0.4792 0.4800 0.4800 0.4792 0.4785 0.4777 0.4777 0.4777 0.4769 0.4769 0.4769 0.4761 0.4753 0.4730 0.4738 0.4745 0.4761 0.4761 0.4769 0.4769 0.4769 0.4753 0.4753 0.4738 0.4738 0.4761 0.4792 0.4792 0.4769 0.4761 0.4761 0.4785 0.4808 0.4824 0.4847 0.4879 0.4886 0.4886 0.4902 0.4926 0.4941 0.4926 0.4894 0.4879 0.4863 0.4839 0.4824 0.4816 0.4824 0.4855 0.4879 0.4894 0.4910 0.4918 0.4910 0.4910 0.4918 0.4933 0.4941 0.4933 0.4941 0.4933 0.4910
0.5771 0.5771 0.5748 0.5740 0.5756 0.5764 0.5779 0.5787 0.5803 0.5810 0.5826 0.5834 0.5834 0.5857 0.5865 0.5865 0.5873 0.5873 0.5857 0.5834 0.5818 0.5810 0.5803 0.5803 0.5803 0.5826 0.5850 0.5857 0.5850 0.5826 0.5818 0.5795 0.5771 0.5732 0.5677 0.5646 0.5630 0.5623 0.5615 0.5646 0.5670 0.5693 0.5709 0.5732 0.5748 0.5732 0.5717 0.5709 0.5709 0.5693 0.5654 0.5638 0.5630 0.5615 0.5599 0.5591 0.5591 0.5591 0.5599 0.5607 0.5623 0.5630 0.5623 0.5630 0.5638 0.5662 0.5693 0.5709 0.5717 0.5717 0.5709 0.5717 0.5717 0.5724 0.5732 0.5740 0.5756 0.5771 0.5779 0.5787 0.5795 0.5810 0.5818 0.5810 0.5834 0.5881 0.5928 0.5959 0.5959 0.5951 0.5928 0.5912 0.5897 0.5881 0.5873 0.5865 0.5850 0.5834 0.5818 0.5771 0.5732 0.5693 0.5670 0.5662 0.5646 0.5623 0.5615 0.5599 0.5552 0.5505 0.5474 0.5442 0.5411 0.5388 0.5348 0.5317 0.5294 0.5286 0.5309 0.5333 0.5333 0.5364 0.5380 0.5372 0.5372 0.5372 0.5372 0.5372 0.5341 0.5325 0.5341 0.5380 0.5419 0.5442 0.5458 0.5466 0.5458 0.5450 0.5442 0.5435 0.5419 0.5411 0.5411 0.5411 0.5395 0.5372 0.5348 0.5317 0.5294 0.5278 0.5262 0.5231 0.5208 0.5192 0.5184 0.5184 0.5184 0.5161 0.5145 0.5114 0.5082 0.5043 0.5004 0.4957 0.4926 0.4879 0.4855 0.4839 0.4832 0.4824 0.4816 0.4808 0.4808 0.4800 0.4800 0.4792 0.4792 0.4800 0.4800 0.4792 0.4785 0.4785 0.4785 0.4777 0.4777 0.4769 0.4769 0.4761 0.4761 0.4761 0.4753 0.4753 0.4753 0.4761 0.4785 0.4792 0.4800 0.4816 0.4808 0.4800 0.4792 0.4792 0.4785 0.4792 0.4808 0.4824 0.4816 0.4808 0.4816 0.4839 0.4871 0.4886 0.4910 0.4926 0.4926 0.4926 0.4933 0.4949 0.4941 0.4933 0.4910 0.4894 0.4879 0.4847 0.4832 0.4832 0.4839 0.4871 0.4902 0.4926 0.4941 0.4949 0.4949 0.4949 0.4957 0.4965 0.4965 0.4957 0.4957 0.4941 0.4933
0.5756 0.5740 0.5724 0.5717 0.5732 0.5748 0.5764 0.5779 0.5779 0.5787 0.5803 0.5810 0.5834 0.5850 0.5857 0.5857 0.5865 0.5865 0.5850 0.5826 0.5810 0.5787 0.5779 0.5779 0.5795 0.5810 0.5834 0.5842 0.5834 0.5818 0.5803 0.5787 0.5771 0.5732 0.5677 0.5646 0.5623 0.5599 0.5591 0.5599 0.5630 0.5670 0.5693 0.5709 0.5717 0.5701 0.5693 0.5685 0.5685 0.5670 0.5654 0.5630 0.5623 0.5607 0.5599 0.5591 0.5599 0.5607 0.5615 0.5623 0.5638 0.5646 0.5654 0.5662 0.5670 0.5677 0.5701 0.5709 0.5717 0.5717 0.5717 0.5709 0.5709 0.5724 0.5724 0.5732 0.5748 0.5756 0.5779 0.5795 0.5810 0.5834 0.5850 0.5857 0.5873 0.5912 0.5951 0.5975 0.5975 0.5959 0.5951 0.5928 0.5912 0.5881 0.5873 0.5850 0.5818 0.5795 0.5771 0.5740 0.5717 0.5693 0.5670 0.5646 0.5630 0.5607 0.5599 0.5591 0.5560 0.5521 0.5474 0.5435 0.5403 0.5364 0.5333 0.5317 0.5309 0.5317 0.5341 0.5372 0.5372 0.5411 0.5435 0.5450 0.5442 0.5450 0.5427 0.5403 0.5380 0.5372 0.5395 0.5427 0.5442 0.5450 0.5458 0.5458 0.5458 0.5450 0.5435 0.5419 0.5419 0.5411 0.5395 0.5380 0.5372 0.5364 0.5333 0.5309 0.5294 0.5278 0.5262 0.5255 0.5239 0.5223 0.5223 0.5231 0.5231 0.5215 0.5192 0.5153 0.5106 0.5059 0.5004 0.4965 0.4926 0.4886 0.4863 0.4855 0.4847 0.4847 0.4839 0.4832 0.4824 0.4824 0.4816 0.4808 0.4808 0.4808 0.4808 0.4792 0.4777 0.4777 0.4785 0.4785 0.4785 0.4785 0.4785 0.4777 0.4761 0.4753 0.4769 0.4769 0.4769 0.4777 0.4800 0.4824 0.4832 0.4839 0.4832 0.4832 0.4839 0.4847 0.4847 0.4847 0.4839 0.4839 0.4847 0.4855 0.4871 0.4886 0.4910 0.4933 0.4949 0.4965 0.4973 0.4965 0.4973 0.4965 0.4949 0.4941 0.4933 0.4918 0.4894 0.4871 0.4855 0.4863 0.4863 0.4894 0.4918 0.4949 0.4965 0.4980 0.4988 0.4988 0.5004 0.5012 0.5004 0.4996 0.4980 0.4965 0.4957
0.5724 0.5717 0.5693 0.5701 0.5717 0.5748 0.5771 0.5771 0.5771 0.5779 0.5795 0.5803 0.5818 0.5842 0.5842 0.5834 0.5842 0.5842 0.5826 0.5810 0.5787 0.5756 0.5748 0.5764 0.5779 0.5803 0.5818 0.5826 0.5818 0.5810 0.5803 0.5779 0.5756 0.5717 0.5670 0.5638 0.5607 0.5591 0.5583 0.5583 0.5599 0.5630 0.5662 0.5677 0.5685 0.5685 0.5670 0.5662 0.5662 0.5654 0.5630 0.5623 0.5607 0.5607 0.5599 0.5599 0.5599 0.5607 0.5623 0.5630 0.5646 0.5654 0.5662 0.5670 0.5677 0.5693 0.5701 0.5709 0.5709 0.5709 0.5701 0.5701 0.5701 0.5701 0.5709 0.5709 0.5724 0.5748 0.5771 0.5803 0.5834 0.5865 0.5881 0.5904 0.5928 0.5951 0.5975 0.5983 0.5975 0.5975 0.5951 0.5944 0.5912 0.5881 0.5850 0.5818 0.5795 0.5764 0.5740 0.5724 0.5709 0.5685 0.5646 0.5630 0.5607 0.5591 0.5583 0.5568 0.5568 0.5521 0.5458 0.5419 0.5388 0.5356 0.5333 0.5325 0.5333 0.5348 0.5380 0.5411 0.5411 0.5442 0.5466 0.5474 0.5497 0.5489 0.5458 0.5419 0.5403 0.5411 0.5427 0.5442 0.5450 0.5450 0.5450 0.5458 0.5442 0.5427 0.5411 0.5403 0.5403 0.5403 0.5380 0.5364 0.5348 0.5341 0.5325 0.5309 0.5294 0.5278 0.5262 0.5247 0.5239 0.5239 0.5231 0.5231 0.5208 0.5200 0.5192 0.5145 0.5098 0.5051 0.4996 0.4949 0.4918 0.4871 0.4855 0.4847 0.4855 0.4855 0.4863 0.4847 0.4832 0.4839 0.4839 0.4832 0.4816 0.4816 0.4808 0.4808 0.4785 0.4769 0.4777 0.4785 0.4792 0.4808 0.4808 0.4792 0.4777 0.4777 0.4777 0.4792 0.4792 0.4800 0.4824 0.4832 0.4847 0.4847 0.4847 0.4847 0.4871 0.4879 0.4886 0.4886 0.4879 0.4879 0.4871 0.4879 0.4902 0.4933 0.4957 0.4973 0.4988 0.4996 0.5004 0.5012 0.5004 0.4996 0.4980 0.4965 0.4949 0.4926 0.4910 0.4894 0.4886 0.4902 0.4918 0.4926 0.4957 0.4980 0.5004 0.5027 0.5027 0.5027 0.5027 0.5035 0.5027 0.5020 0.5020 0.5004 0.4988
0.5701 0.5693 0.5685 0.5693 0.5724 0.5756 0.5771 0.5771 0.5771 0.5779 0.5803 0.5818 0.5826 0.5834 0.5818 0.5803 0.5810 0.5810 0.5803 0.5771 0.5748 0.5724 0.5732 0.5748 0.5779 0.5795 0.5810 0.5810 0.5810 0.5803 0.5787 0.5764 0.5732 0.5701 0.5662 0.5623 0.5599 0.5583 0.5583 0.5576 0.5583 0.5599 0.5630 0.5646 0.5646 0.5654 0.5638 0.5630 0.5630 0.5623 0.5615 0.5599 0.5583 0.5583 0.5583 0.5583 0.5591 0.5615 0.5623 0.5630 0.5638 0.5646 0.5662 0.5677 0.5693 0.5701 0.5701 0.5701 0.5693 0.5693 0.5693 0.5685 0.5685 0.5677 0.5677 0.5693 0.5717 0.5732 0.5764 0.5803 0.5834 0.5865 0.5904 0.5944 0.5959 0.5967 0.5983 0.5983 0.5975 0.5959 0.5951 0.5928 0.5897 0.5857 0.5826 0.5795 0.5779 0.5756 0.5732 0.5709 0.5693 0.5662 0.5630 0.5615 0.5599 0.5576 0.5552 0.5552 0.5536 0.5497 0.5442 0.5419 0.5411 0.5380 0.5364 0.5364 0.5380 0.5403 0.5442 0.5458 0.5458 0.5474 0.5482 0.5505 0.5513 0.5513 0.5489 0.5466 0.5442 0.5442 0.5442 0.5435 0.5435 0.5435 0.5442 0.5435 0.5419 0.5395 0.5380 0.5380 0.5372 0.5372 0.5364 0.5348 0.5333 0.5325 0.5301 0.5294 0.5278 0.5262 0.5239 0.5223 0.5208 0.5208 0.5215 0.5192 0.5176 0.5153 0.5137 0.5106 0.5074 0.5035 0.4988 0.4941 0.4902 0.4863 0.4847 0.4847 0.4863 0.4886 0.4902 0.4894 0.4886 0.4879 0.4879 0.4863 0.4824 0.4816 0.4824 0.4816 0.4800 0.4785 0.4777 0.4785 0.4800 0.4824 0.4832 0.4816 0.4816 0.4808 0.4808 0.4808 0.4824 0.4839 0.4839 0.4847 0.4855 0.4863 0.4863 0.4879 0.4910 0.4933 0.4933 0.4949 0.4949 0.4926 0.4918 0.4926 0.4957 0.4980 0.5012 0.5035 0.5035 0.5051 0.5051 0.5043 0.5043 0.5035 0.5020 0.4996 0.4980 0.4957 0.4941 0.4926 0.4926 0.4941 0.4957 0.4980 0.4996 0.5020 0.5059 0.5074 0.5082 0.5074 0.5059 0.5059 0.5051 0.5043 0.5043 0.5043 0.5027
0.5662 0.5662 0.5662 0.5677 0.5724 0.5756 0.5771 0.5787 0.5787 0.5803 0.5826 0.5850 0.5842 0.5826 0.5803 0.5787 0.5787 0.5779 0.5764 0.5740 0.5717 0.5709 0.5717 0.5740 0.5771 0.5795 0.5795 0.5795 0.5795 0.5787 0.5771 0.5756 0.5717 0.5685 0.5638 0.5615 0.5591 0.5591 0.5576 0.5568 0.5568 0.5583 0.5599 0.5607 0.5623 0.5623 0.5615 0.5599 0.5591 0.5591 0.5583 0.5568 0.5560 0.5552 0.5560 0.5560 0.5576 0.5599 0.5623 0.5623 0.5638 0.5646 0.5662 0.5685 0.5701 0.5709 0.5701 0.5685 0.5685 0.5677 0.5677 0.5670 0.5662 0.5654 0.5654 0.5670 0.5701 0.5732 0.5764 0.5803 0.5834 0.5865 0.5897 0.5928 0.5944 0.5967 0.5975 0.5975 0.5967 0.5944 0.5920 0.5904 0.5865 0.5834 0.5803 0.5779 0.5764 0.5748 0.5709 0.5677 0.5670 0.5646 0.5615 0.5591 0.5568 0.5552 0.5552 0.5529 0.5513 0.5474 0.5442 0.5435 0.5427 0.5419 0.5403 0.5419 0.5442 0.5474 0.5489 0.5505 0.5505 0.5505 0.5521 0.5529 0.5529 0.5521 0.5513 0.5474 0.5458 0.5442 0.5442 0.5435 0.5427 0.5427 0.5419 0.5411 0.5388 0.5380 0.5364 0.5364 0.5356 0.5341 0.5341 0.5325 0.5301 0.5278 0.5262 0.5255 0.5239 0.5223 0.5208 0.5192 0.5168 0.5161 0.5153 0.5153 0.5129 0.5114 0.5090 0.5067 0.5051 0.5020 0.4973 0.4926 0.4886 0.4855 0.4855 0.4879 0.4910 0.4933 0.4973 0.4988 0.4980 0.4965 0.4941 0.4910 0.4871 0.4847 0.4839 0.4832 0.4808 0.4816 0.4816 0.4808 0.4824 0.4855 0.4879 0.4879 0.4871 0.4871 0.4863 0.4855 0.4863 0.4871 0.4879 0.4894 0.4894 0.4894 0.4894 0.4910 0.4933 0.4957 0.4973 0.4996 0.5012 0.4996 0.4980 0.4996 0.5004 0.5020 0.5043 0.5059 0.5074 0.5098 0.5106 0.5106 0.5090 0.5090 0.5074 0.5051 0.5035 0.5004 0.4988 0.4980 0.4980 0.4996 0.5004 0.5020 0.5035 0.5059 0.5074 0.5098 0.5121 0.5114 0.5098 0.5098 0.5098 0.5074 0.5067 0.5059 0.5059
0.5623 0.5638 0.5638 0.5677 0.5732 0.5756 0.5771 0.5787 0.5810 0.5834 0.5857 0.5857 0.5842 0.5826 0.5795 0.5771 0.5764 0.5756 0.5740 0.5724 0.5701 0.5685 0.5693 0.5724 0.5756 0.5771 0.5779 0.5779 0.5779 0.5771 0.5756 0.5740 0.5709 0.5677 0.5654 0.5630 0.5607 0.5591 0.5576 0.5552 0.5552 0.5560 0.5568 0.5583 0.5591 0.5599 0.5591 0.5583 0.5568 0.5560 0.5552 0.5544 0.5536 0.5544 0.5544 0.5560 0.5583 0.5607 0.5623 0.5630 0.5638 0.5646 0.5662 0.5670 0.5685 0.5693 0.5693 0.5685 0.5670 0.5662 0.5654 0.5654 0.5646 0.5646 0.5638 0.5654 0.5677 0.5709 0.5756 0.5787 0.5818 0.5850 0.5881 0.5912 0.5936 0.5951 0.5959 0.5959 0.5944 0.5912 0.5889 0.5873 0.5857 0.5834 0.5826 0.5795 0.5756 0.5724 0.5693 0.5662 0.5646 0.5638 0.5607 0.5583 0.5552 0.5552 0.5552 0.5536 0.5521 0.5489 0.5458 0.5458 0.5458 0.5458 0.5466 0.5482 0.5505 0.5529 0.5536 0.5529 0.5529 0.5529 0.5529 0.5536 0.5529 0.5513 0.5489 0.5474 0.5458 0.5442 0.5435 0.5419 0.5411 0.5395 0.5388 0.5380 0.5356 0.5356 0.5356 0.5348 0.5333 0.5317 0.5309 0.5294 0.5270 0.5262 0.5247 0.5215 0.5184 0.5161 0.5145 0.5129 0.5106 0.5090 0.5090 0.5074 0.5082 0.5059 0.5043 0.5027 0.5012 0.4980 0.4949 0.4902 0.4879 0.4871 0.4902 0.4949 0.4973 0.5020 0.5059 0.5067 0.5043 0.5020 0.4980 0.4949 0.4918 0.4902 0.4886 0.4863 0.4847 0.4847 0.4847 0.4863 0.4886 0.4910 0.4926 0.4933 0.4918 0.4910 0.4910 0.4910 0.4918 0.4926 0.4926 0.4933 0.4933 0.4933 0.4918 0.4933 0.4965 0.4988 0.5004 0.5035 0.5043 0.5027 0.5027 0.5035 0.5043 0.5059 0.5074 0.5098 0.5114 0.5129 0.5129 0.5129 0.5129 0.5114 0.5098 0.5074 0.5051 0.5051 0.5035 0.5020 0.5004 0.5020 0.5035 0.5051 0.5067 0.5082 0.5098 0.5121 0.5137 0.5145 0.5129 0.5129 0.5121 0.5106 0.5090 0.5082 0.5082
0.5607 0.5615 0.5638 0.5677 0.5740 0.5779 0.5779 0.5803 0.5818 0.5842 0.5850 0.5850 0.5842 0.5818 0.5787 0.5771 0.5756 0.5740 0.5732 0.5717 0.5677 0.5662 0.5677 0.5709 0.5732 0.5748 0.5756 0.5764 0.5764 0.5748 0.5732 0.5717 0.5693 0.5670 0.5654 0.5630 0.5607 0.5591 0.5576 0.5552 0.5544 0.5544 0.5552 0.5560 0.5568 0.5568 0.5560 0.5560 0.5552 0.5536 0.5529 0.5521 0.5521 0.5529 0.5544 0.5560 0.5583 0.5599 0.5607 0.5630 0.5646 0.5654 0.5654 0.5662 0.5670 0.5677 0.5677 0.5670 0.5654 0.5646 0.5638 0.5630 0.5623 0.5623 0.5630 0.5638 0.5662 0.5693 0.5732 0.5756 0.5771 0.5810 0.5850 0.5881 0.5904 0.5920 0.5928 0.5912 0.5897 0.5865 0.5842 0.5826 0.5818 0.5826 0.5818 0.5771 0.5748 0.5732 0.5717 0.5670 0.5654 0.5646 0.5638 0.5615 0.5607 0.5568 0.5560 0.5552 0.5536 0.5521 0.5497 0.5497 0.5521 0.5521 0.5529 0.5529 0.5552 0.5552 0.5552 0.5544 0.5544 0.5536 0.5536 0.5529 0.5513 0.5489 0.5474 0.5458 0.5450 0.5442 0.5419 0.5411 0.5388 0.5364 0.5356 0.5348 0.5341 0.5341 0.5348 0.5333 0.5317 0.5301 0.5278 0.5255 0.5239 0.5239 0.5215 0.5184 0.5129 0.5106 0.5082 0.5067 0.5059 0.5043 0.5035 0.5027 0.5012 0.4996 0.4988 0.4980 0.4965 0.4949 0.4918 0.4894 0.4886 0.4910 0.4949 0.4996 0.5043 0.5082 0.5114 0.5114 0.5098 0.5051 0.5012 0.4980 0.4957 0.4933 0.4926 0.4918 0.4902 0.4894 0.4910 0.4926 0.4949 0.4949 0.4957 0.4973 0.4980 0.4965 0.4957 0.4973 0.4996 0.5004 0.4988 0.4980 0.4973 0.4965 0.4957 0.4973 0.4996 0.5027 0.5035 0.5051 0.5059 0.5051 0.5059 0.5074 0.5090 0.5098 0.5114 0.5137 0.5153 0.5161 0.5161 0.5161 0.5145 0.5145 0.5129 0.5106 0.5082 0.5074 0.5067 0.5051 0.5043 0.5051 0.5059 0.5074 0.5098 0.5114 0.5129 0.5145 0.5153 0.5153 0.5137 0.5129 0.5129 0.5121 0.5114 0.5106 0.5114
0.5583 0.5615 0.5654 0.5701 0.5756 0.5787 0.5803 0.5810 0.5818 0.5826 0.5826 0.5818 0.5810 0.5803 0.5787 0.5764 0.5740 0.5732 0.5717 0.5693 0.5646 0.5646 0.5662 0.5693 0.5709 0.5717 0.5724 0.5732 0.5748 0.5748 0.5732 0.5717 0.5685 0.5662 0.5638 0.5630 0.5615 0.5607 0.5583 0.5560 0.5544 0.5529 0.5521 0.5529 0.5536 0.5544 0.5536 0.5536 0.5536 0.5529 0.5513 0.5505 0.5505 0.5529 0.5544 0.5560 0.5568 0.5583 0.5607 0.5638 0.5662 0.5670 0.5670 0.5670 0.5677 0.5677 0.5670 0.5654 0.5638 0.5623 0.5615 0.5607 0.5583 0.5576 0.5591 0.5615 0.5638 0.5677 0.5709 0.5732 0.5748 0.5771 0.5803 0.5842 0.5873 0.5881 0.5889 0.5889 0.5865 0.5842 0.5818 0.5803 0.5795 0.5795 0.5779 0.5764 0.5756 0.5748 0.5724 0.5693 0.5662 0.5654 0.5654 0.5654 0.5638 0.5615 0.5591 0.5576 0.5568 0.5560 0.5544 0.5544 0.5552 0.5560 0.5560 0.5560 0.5560 0.5552 0.5544 0.5536 0.5536 0.5529 0.5529 0.5529 0.5513 0.5482 0.5450 0.5435 0.5427 0.5419 0.5411 0.5395 0.5380 0.5356 0.5341 0.5333 0.5317 0.5317 0.5325 0.5309 0.5278 0.5262 0.5247 0.5215 0.5192 0.5192 0.5184 0.5153 0.5114 0.5090 0.5082 0.5074 0.5035 0.5043 0.5035 0.5027 0.5004 0.4973 0.4957 0.4949 0.4933 0.4926 0.4902 0.4886 0.4902 0.4933 0.4980 0.5027 0.5082 0.5129 0.5145 0.5161 0.5129 0.5074 0.5051 0.5035 0.5020 0.5004 0.4980 0.4965 0.4949 0.4949 0.4965 0.4980 0.4980 0.4980 0.4988 0.5004 0.5020 0.5020 0.5012 0.5020 0.5027 0.5043 0.5035 0.5027 0.5012 0.5004 0.5012 0.5020 0.5027 0.5035 0.5059 0.5067 0.5082 0.5098 0.5106 0.5114 0.5129 0.5153 0.5168 0.5176 0.5192 0.5200 0.5200 0.5192 0.5192 0.5176 0.5161 0.5137 0.5121 0.5106 0.5098 0.5082 0.5074 0.5082 0.5098 0.5098 0.5114 0.5129 0.5145 0.5153 0.5153 0.5153 0.5137 0.5137 0.5145 0.5137 0.5121 0.5121 0.5129
0.5576 0.5623 0.5670 0.5724 0.5764 0.5795 0.5803 0.5803 0.5795 0.5795 0.5787 0.5795 0.5787 0.5779 0.5764 0.5748 0.5732 0.5709 0.5693 0.5670 0.5646 0.5623 0.5638 0.5662 0.5677 0.5677 0.5677 0.5701 0.5724 0.5740 0.5732 0.5709 0.5677 0.5654 0.5630 0.5630 0.5623 0.5599 0.5576 0.5552 0.5536 0.5505 0.5497 0.5497 0.5505 0.5513 0.5505 0.5497 0.5505 0.5505 0.5489 0.5489 0.5497 0.5513 0.5536 0.5560 0.5576 0.5599 0.5630 0.5662 0.5677 0.5685 0.5677 0.5677 0.5685 0.5677 0.5670 0.5646 0.5623 0.5615 0.5599 0.5576 0.5552 0.5552 0.5568 0.5576 0.5607 0.5638 0.5677 0.5701 0.5724 0.5732 0.5771 0.5803 0.5834 0.5842 0.5850 0.5857 0.5850 0.5826 0.5810 0.5803 0.5795 0.5771 0.5756 0.5732 0.5732 0.5724 0.5709 0.5693 0.5670 0.5662 0.5654 0.5646 0.5654 0.5638 0.5623 0.5607 0.5591 0.5576 0.5568 0.5560 0.5560 0.5560 0.5560 0.5568 0.5560 0.5552 0.5536 0.5521 0.5521 0.5513 0.5513 0.5513 0.5497 0.5474 0.5450 0.5427 0.5419 0.5403 0.5388 0.5380 0.5364 0.5348 0.5333 0.5317 0.5294 0.5278 0.5278 0.5262 0.5239 0.5231 0.5215 0.5192 0.5176 0.5168 0.5168 0.5168 0.5153 0.5137 0.5137 0.5145 0.5129 0.5106 0.5121 0.5121 0.5074 0.5020 0.4996 0.4965 0.4949 0.4918 0.4910 0.4902 0.4918 0.4949 0.4988 0.5043 0.5090 0.5137 0.5184 0.5208 0.5184 0.5145 0.5106 0.5082 0.5074 0.5074 0.5051 0.4996 0.4980 0.4980 0.4996 0.4996 0.4996 0.4996 0.5004 0.5020 0.5027 0.5027 0.5035 0.5043 0.5051 0.5043 0.5043 0.5035 0.5027 0.5051 0.5059 0.5051 0.5051 0.5059 0.5082 0.5106 0.5129 0.5153 0.5161 0.5153 0.5168 0.5200 0.5215 0.5231 0.5231 0.5223 0.5231 0.5223 0.5208 0.5192 0.5176 0.5168 0.5145 0.5137 0.5129 0.5114 0.5106 0.5114 0.5114 0.5121 0.5129 0.5145 0.5153 0.5161 0.5168 0.5161 0.5153 0.5153 0.5153 0.5153 0.5137 0.5129 0.5129
0.5576 0.5607 0.5662 0.5724 0.5771 0.5795 0.5787 0.5771 0.5764 0.5756 0.5756 0.5764 0.5764 0.5756 0.5740 0.5732 0.5717 0.5701 0.5677 0.5654 0.5623 0.5607 0.5615 0.5630 0.5630 0.5638 0.5654 0.5685 0.5717 0.5724 0.5717 0.5701 0.5670 0.5654 0.5638 0.5623 0.5615 0.5599 0.5560 0.5529 0.5505 0.5474 0.5466 0.5474 0.5489 0.5489 0.5482 0.5466 0.5466 0.5466 0.5466 0.5474 0.5497 0.5513 0.5536 0.5560 0.5576 0.5607 0.5646 0.5662 0.5670 0.5685 0.5685 0.5693 0.5685 0.5677 0.5654 0.5638 0.5615 0.5591 0.5576 0.5560 0.5536 0.5544 0.5560 0.5568 0.5568 0.5591 0.5638 0.5670 0.5685 0.5709 0.5724 0.5771 0.5810 0.5826 0.5834 0.5842 0.5826 0.5803 0.5787 0.5787 0.5764 0.5732 0.5701 0.5693 0.5685 0.5685 0.5677 0.5670 0.5662 0.5654 0.5638 0.5638 0.5630 0.5630 0.5623 0.5615 0.5599 0.5583 0.5568 0.5560 0.5552 0.5552 0.5560 0.5560 0.5552 0.5536 0.5521 0.5505 0.5505 0.5489 0.5489 0.5497 0.5482 0.5474 0.5458 0.5442 0.5419 0.5395 0.5372 0.5372 0.5356 0.5341 0.5325 0.5294 0.5270 0.5255 0.5247 0.5239 0.5223 0.5208 0.5200 0.5184 0.5176 0.5184 0.5200 0.5215 0.5223 0.5208 0.5200 0.5215 0.5208 0.5208 0.5208 0.5208 0.5168 0.5137 0.5074 0.5027 0.4980 0.4949 0.4918 0.4918 0.4926 0.4949 0.4980 0.5035 0.5098 0.5145 0.5192 0.5215 0.5223 0.5200 0.5168 0.5137 0.5129 0.5114 0.5074 0.5035 0.5020 0.5020 0.5027 0.5020 0.5020 0.5027 0.5035 0.5051 0.5051 0.5051 0.5074 0.5082 0.5082 0.5082 0.5067 0.5043 0.5059 0.5090 0.5106 0.5106 0.5098 0.5098 0.5121 0.5153 0.5168 0.5192 0.5208 0.5208 0.5223 0.5231 0.5239 0.5255 0.5270 0.5270 0.5262 0.5255 0.5223 0.5208 0.5200 0.5192 0.5168 0.5153 0.5145 0.5137 0.5129 0.5129 0.5129 0.5137 0.5145 0.5153 0.5168 0.5184 0.5192 0.5184 0.5176 0.5168 0.5168 0.5161 0.5145 0.5129 0.5114
0.5560 0.5599 0.5654 0.5701 0.5740 0.5771 0.5764 0.5740 0.5732 0.5740 0.5740 0.5748 0.5756 0.5740 0.5724 0.5717 0.5709 0.5685 0.5662 0.5630 0.5607 0.5591 0.5591 0.5591 0.5607 0.5623 0.5654 0.5677 0.5701 0.5701 0.5693 0.5685 0.5662 0.5646 0.5630 0.5623 0.5615 0.5591 0.5560 0.5521 0.5482 0.5458 0.5442 0.5450 0.5458 0.5458 0.5458 0.5458 0.5450 0.5450 0.5450 0.5474 0.5505 0.5529 0.5544 0.5560 0.5583 0.5615 0.5646 0.5654 0.5662 0.5670 0.5685 0.5693 0.5693 0.5677 0.5646 0.5630 0.5607 0.5576 0.5552 0.5529 0.5529 0.5529 0.5544 0.5536 0.5544 0.5568 0.5591 0.5615 0.5638 0.5662 0.5693 0.5740 0.5787 0.5810 0.5818 0.5826 0.5818 0.5787 0.5779 0.5771 0.5740 0.5693 0.5662 0.5654 0.5654 0.5638 0.5630 0.5630 0.5630 0.5615 0.5607 0.5607 0.5599 0.5599 0.5599 0.5599 0.5583 0.5560 0.5544 0.5536 0.5529 0.5529 0.5536 0.5529 0.5521 0.5513 0.5497 0.5489 0.5489 0.5482 0.5489 0.5489 0.5489 0.5482 0.5466 0.5442 0.5419 0.5388 0.5372 0.5356 0.5348 0.5333 0.5317 0.5286 0.5262 0.5247 0.5247 0.5239 0.5223 0.5223 0.5208 0.5208 0.5200 0.5208 0.5215 0.5231 0.5239 0.5239 0.5231 0.5239 0.5239 0.5239 0.5239 0.5223 0.5200 0.5168 0.5114 0.5043 0.4996 0.4949 0.4926 0.4926 0.4957 0.4988 0.5027 0.5082 0.5114 0.5145 0.5176 0.5200 0.5208 0.5215 0.5208 0.5192 0.5168 0.5145 0.5114 0.5074 0.5074 0.5074 0.5082 0.5082 0.5074 0.5082 0.5098 0.5106 0.5114 0.5098 0.5106 0.5121 0.5121 0.5129 0.5114 0.5106 0.5106 0.5129 0.5145 0.5153 0.5145 0.5153 0.5168 0.5184 0.5200 0.5215 0.5231 0.5239 0.5262 0.5278 0.5270 0.5286 0.5286 0.5286 0.5278 0.5262 0.5247 0.5223 0.5215 0.5200 0.5184 0.5176 0.5168 0.5161 0.5153 0.5145 0.5153 0.5161 0.5168 0.5176 0.5184 0.5200 0.5208 0.5208 0.5200 0.5184 0.5184 0.5176 0.5161 0.5137 0.5129
0.5560 0.5599 0.5646 0.5677 0.5709 0.5724 0.5724 0.5717 0.5717 0.5724 0.5732 0.5740 0.5732 0.5717 0.5701 0.5693 0.5677 0.5654 0.5630 0.5615 0.5583 0.5560 0.5560 0.5568 0.5591 0.5607 0.5638 0.5662 0.5685 0.5693 0.5693 0.5677 0.5654 0.5630 0.5623 0.5615 0.5607 0.5583 0.5568 0.5536 0.5497 0.5450 0.5435 0.5435 0.5435 0.5442 0.5442 0.5442 0.5435 0.5435 0.5450 0.5482 0.5521 0.5552 0.5568 0.5576 0.5599 0.5638 0.5670 0.5670 0.5662 0.5677 0.5685 0.5693 0.5693 0.5670 0.5646 0.5623 0.5599 0.5560 0.5536 0.5529 0.5513 0.5505 0.5497 0.5497 0.5513 0.5544 0.5576 0.5591 0.5607 0.5630 0.5670 0.5717 0.5764 0.5787 0.5803 0.5810 0.5803 0.5795 0.5779 0.5764 0.5717 0.5677 0.5654 0.5638 0.5630 0.5607 0.5591 0.5583 0.5576 0.5560 0.5560 0.5552 0.5552 0.5552 0.5560 0.5560 0.5552 0.5536 0.5521 0.5513 0.5513 0.5513 0.5513 0.5513 0.5513 0.5505 0.5489 0.5482 0.5482 0.5482 0.5482 0.5489 0.5497 0.5489 0.5466 0.5442 0.5419 0.5403 0.5380 0.5364 0.5356 0.5348 0.5333 0.5301 0.5278 0.5262 0.5270 0.5262 0.5278 0.5270 0.5262 0.5255 0.5262 0.5255 0.5239 0.5247 0.5247 0.5239 0.5239 0.5239 0.5239 0.5239 0.5239 0.5223 0.5200 0.5168 0.5114 0.5051 0.5004 0.4965 0.4949 0.4949 0.4973 0.4996 0.5035 0.5051 0.5074 0.5106 0.5145 0.5168 0.5200 0.5215 0.5231 0.5215 0.5208 0.5200 0.5168 0.5168 0.5145 0.5137 0.5129 0.5129 0.5121 0.5137 0.5161 0.5184 0.5176 0.5168 0.5184 0.5168 0.5184 0.5176 0.5184 0.5176 0.5176 0.5184 0.5200 0.5200 0.5200 0.5200 0.5215 0.5223 0.5239 0.5239 0.5247 0.5262 0.5278 0.5309 0.5325 0.5309 0.5301 0.5294 0.5278 0.5278 0.5262 0.5239 0.5223 0.5208 0.5192 0.5192 0.5192 0.5184 0.5176 0.5168 0.5176 0.5192 0.5208 0.5215 0.5231 0.5231 0.5231 0.5239 0.5215 0.5200 0.5200 0.5208 0.5192 0.5176 0.5168
0.5544 0.5591 0.5630 0.5662 0.5685 0.5685 0.5685 0.5693 0.5701 0.5709 0.5717 0.5709 0.5693 0.5677 0.5670 0.5662 0.5646 0.5623 0.5607 0.5583 0.5552 0.5544 0.5560 0.5599 0.5607 0.5623 0.5646 0.5662 0.5685 0.5693 0.5685 0.5670 0.5638 0.5615 0.5591 0.5591 0.5583 0.5568 0.5552 0.5536 0.5497 0.5458 0.5442 0.5435 0.5435 0.5435 0.5435 0.5435 0.5427 0.5435 0.5474 0.5513 0.5544 0.5560 0.5576 0.5583 0.5615 0.5662 0.5693 0.5685 0.5685 0.5701 0.5717 0.5732 0.5709 0.5685 0.5662 0.5630 0.5591 0.5552 0.5536 0.5529 0.5513 0.5489 0.5466 0.5474 0.5489 0.5513 0.5544 0.5568 0.5591 0.5623 0.5662 0.5717 0.5756 0.5779 0.5787 0.5795 0.5795 0.5787 0.5779 0.5756 0.5709 0.5677 0.5654 0.5638 0.5623 0.5599 0.5576 0.5552 0.5536 0.5529 0.5521 0.5513 0.5513 0.5521 0.5513 0.5505 0.5505 0.5497 0.5489 0.5489 0.5482 0.5482 0.5482 0.5489 0.5489 0.5482 0.5466 0.5458 0.5458 0.5458 0.5466 0.5482 0.5489 0.5497 0.5489 0.5474 0.5442 0.5411 0.5395 0.5380 0.5380 0.5380 0.5380 0.5348 0.5325 0.5317 0.5309 0.5317 0.5309 0.5294 0.5286 0.5286 0.5278 0.5270 0.5255 0.5255 0.5255 0.5247 0.5247 0.5247 0.5239 0.5223 0.5215 0.5208 0.5176 0.5145 0.5114 0.5067 0.5020 0.4980 0.4965 0.4965 0.4980 0.5004 0.5027 0.5027 0.5035 0.5082 0.5121 0.5145 0.5176 0.5208 0.5223 0.5239 0.5239 0.5239 0.5239 0.5231 0.5215 0.5192 0.5176 0.5168 0.5168 0.5176 0.5208 0.5223 0.5231 0.5239 0.5231 0.5247 0.5247 0.5262 0.5270 0.5255 0.5239 0.5239 0.5239 0.5247 0.5239 0.5247 0.5255 0.5278 0.5278 0.5286 0.5294 0.5301 0.5317 0.5333 0.5341 0.5333 0.5317 0.5301 0.5286 0.5278 0.5262 0.5247 0.5223 0.5208 0.5215 0.5215 0.5200 0.5200 0.5200 0.5200 0.5200 0.5223 0.5239 0.5255 0.5255 0.5255 0.5255 0.5247 0.5231 0.5215 0.5223 0.5223 0.5208 0.5184 0.5184
0.5536 0.5576 0.5623 0.5646 0.5654 0.5654 0.5662 0.5670 0.5677 0.5685 0.5685 0.5685 0.5670 0.5646 0.5646 0.5630 0.5615 0.5591 0.5560 0.5552 0.5544 0.5544 0.5583 0.5607 0.5623 0.5646 0.5662 0.5677 0.5685 0.5685 0.5677 0.5654 0.5623 0.5591 0.5583 0.5583 0.5568 0.5529 0.5521 0.5513 0.5482 0.5458 0.5442 0.5427 0.5419 0.5419 0.5419 0.5427 0.5442 0.5474 0.5505 0.5544 0.5568 0.5583 0.5591 0.5607 0.5630 0.5654 0.5677 0.5693 0.5701 0.5732 0.5764 0.5764 0.5732 0.5701 0.5670 0.5638 0.5607 0.5576 0.5544 0.5521 0.5505 0.5474 0.5458 0.5458 0.5466 0.5482 0.5513 0.5544 0.5576 0.5615 0.5670 0.5724 0.5756 0.5771 0.5779 0.5787 0.5779 0.5771 0.5764 0.5740 0.5709 0.5677 0.5662 0.5646 0.5630 0.5599 0.5560 0.5536 0.5513 0.5505 0.5497 0.5482 0.5474 0.5474 0.5474 0.5466 0.5466 0.5466 0.5466 0.5466 0.5458 0.5458 0.5458 0.5458 0.5450 0.5435 0.5427 0.5427 0.5427 0.5435 0.5450 0.5466 0.5474 0.5489 0.5505 0.5497 0.5474 0.5458 0.5427 0.5411 0.5395 0.5411 0.5411 0.5388 0.5364 0.5348 0.5341 0.5333 0.5317 0.5309 0.5301 0.5294 0.5286 0.5270 0.5255 0.5262 0.5270 0.5262 0.5262 0.5247 0.5231 0.5200 0.5192 0.5176 0.5153 0.5129 0.5114 0.5074 0.5027 0.4980 0.4973 0.4980 0.4996 0.5035 0.5067 0.5082 0.5082 0.5090 0.5106 0.5129 0.5161 0.5200 0.5223 0.5247 0.5262 0.5262 0.5270 0.5270 0.5255 0.5239 0.5223 0.5223 0.5215 0.5231 0.5239 0.5270 0.5294 0.5294 0.5286 0.5294 0.5294 0.5294 0.5294 0.5301 0.5294 0.5278 0.5270 0.5278 0.5278 0.5278 0.5286 0.5294 0.5309 0.5325 0.5333 0.5348 0.5348 0.5364 0.5364 0.5348 0.5325 0.5309 0.5294 0.5286 0.5278 0.5255 0.5239 0.5231 0.5231 0.5223 0.5215 0.5223 0.5231 0.5231 0.5239 0.5247 0.5255 0.5270 0.5270 0.5270 0.5262 0.5255 0.5239 0.5231 0.5231 0.5223 0.5208 0.5184 0.5176
0.5536 0.5568 0.5599 0.5615 0.5623 0.5630 0.5630 0.5638 0.5646 0.5654 0.5654 0.5646 0.5638 0.5615 0.5607 0.5599 0.5576 0.5544 0.5529 0.5529 0.5521 0.5529 0.5568 0.5615 0.5630 0.5654 0.5670 0.5670 0.5670 0.5662 0.5646 0.5638 0.5615 0.5591 0.5576 0.5576 0.5560 0.5529 0.5505 0.5482 0.5466 0.5450 0.5435 0.5411 0.5395 0.5403 0.5403 0.5419 0.5450 0.5482 0.5513 0.5544 0.5583 0.5599 0.5615 0.5630 0.5638 0.5646 0.5670 0.5685 0.5717 0.5764 0.5779 0.5771 0.5756 0.5732 0.5701 0.5654 0.5623 0.5583 0.5560 0.5529 0.5489 0.5458 0.5442 0.5435 0.5450 0.5474 0.5513 0.5544 0.5583 0.5615 0.5662 0.5709 0.5748 0.5764 0.5779 0.5779 0.5771 0.5756 0.5740 0.5732 0.5717 0.5693 0.5670 0.5646 0.5623 0.5591 0.5552 0.5529 0.5513 0.5489 0.5466 0.5450 0.5435 0.5435 0.5427 0.5427 0.5435 0.5442 0.5450 0.5442 0.5435 0.5435 0.5435 0.5435 0.5427 0.5411 0.5403 0.5411 0.5411 0.5419 0.5442 0.5458 0.5466 0.5489 0.5497 0.5497 0.5489 0.5474 0.5466 0.5435 0.5427 0.5411 0.5411 0.5388 0.5364 0.5348 0.5341 0.5333 0.5317 0.5309 0.5301 0.5294 0.5278 0.5255 0.5255 0.5262 0.5262 0.5262 0.5255 0.5239 0.5208 0.5184 0.5168 0.5153 0.5137 0.5129 0.5098 0.5059 0.5012 0.4988 0.4980 0.4988 0.5012 0.5059 0.5121 0.5137 0.5129 0.5114 0.5106 0.5121 0.5168 0.5192 0.5215 0.5247 0.5270 0.5294 0.5301 0.5309 0.5309 0.5301 0.5286 0.5286 0.5286 0.5278 0.5286 0.5317 0.5325 0.5333 0.5325 0.5317 0.5309 0.5309 0.5325 0.5341 0.5333 0.5317 0.5309 0.5301 0.5309 0.5309 0.5317 0.5325 0.5333 0.5364 0.5380 0.5388 0.5380 0.5372 0.5372 0.5356 0.5333 0.5325 0.5309 0.5286 0.5278 0.5262 0.5255 0.5255 0.5255 0.5247 0.5247 0.5255 0.5255 0.5255 0.5262 0.5270 0.5278 0.5286 0.5286 0.5278 0.5278 0.5262 0.5247 0.5231 0.5223 0.5223 0.5215 0.5200 0.5192
0.5521 0.5536 0.5552 0.5576 0.5583 0.5583 0.5591 0.5599 0.5599 0.5607 0.5599 0.5599 0.5583 0.5576 0.5568 0.5560 0.5552 0.5536 0.5513 0.5497 0.5497 0.5513 0.5560 0.5607 0.5638 0.5662 0.5670 0.5662 0.5646 0.5630 0.5623 0.5607 0.5583 0.5568 0.5560 0.5552 0.5544 0.5521 0.5505 0.5482 0.5458 0.5435 0.5403 0.5380 0.5380 0.5380 0.5388 0.5411 0.5450 0.5482 0.5505 0.5529 0.5568 0.5607 0.5630 0.5646 0.5646 0.5654 0.5685 0.5709 0.5724 0.5764 0.5787 0.5787 0.5771 0.5756 0.5724 0.5693 0.5638 0.5591 0.5560 0.5521 0.5489 0.5458 0.5427 0.5427 0.5427 0.5442 0.5474 0.5529 0.5576 0.5623 0.5662 0.5701 0.5740 0.5764 0.5771 0.5771 0.5764 0.5748 0.5724 0.5717 0.5709 0.5685 0.5654 0.5638 0.5615 0.5583 0.5544 0.5521 0.5505 0.5474 0.5435 0.5427 0.5427 0.5419 0.5411 0.5411 0.5411 0.5419 0.5419 0.5427 0.5427 0.5419 0.5419 0.5427 0.5419 0.5411 0.5403 0.5411 0.5411 0.5419 0.5442 0.5458 0.5466 0.5482 0.5489 0.5474 0.5474 0.5466 0.5458 0.5442 0.5419 0.5403 0.5395 0.5388 0.5364 0.5341 0.5333 0.5309 0.5294 0.5286 0.5286 0.5278 0.5255 0.5239 0.5239 0.5239 0.5247 0.5247 0.5239 0.5208 0.5176 0.5161 0.5145 0.5129 0.5121 0.5098 0.5067 0.5035 0.5012 0.4996 0.5004 0.5020 0.5059 0.5106 0.5137 0.5161 0.5161 0.5145 0.5137 0.5153 0.5176 0.5200 0.5223 0.5255 0.5301 0.5333 0.5348 0.5356 0.5372 0.5356 0.5348 0.5348 0.5348 0.5341 0.5348 0.5356 0.5372 0.5380 0.5380 0.5372 0.5364 0.5348 0.5348 0.5356 0.5364 0.5364 0.5364 0.5364 0.5364 0.5364 0.5372 0.5380 0.5395 0.5411 0.5435 0.5419 0.5403 0.5380 0.5372 0.5356 0.5341 0.5341 0.5333 0.5309 0.5301 0.5294 0.5278 0.5278 0.5278 0.5278 0.5278 0.5286 0.5278 0.5278 0.5286 0.5294 0.5301 0.5301 0.5294 0.5294 0.5286 0.5278 0.5262 0.5247 0.5247 0.5247 0.5255 0.5239 0.5239
0.5489 0.5513 0.5536 0.5552 0.5560 0.5552 0.5560 0.5576 0.5568 0.5560 0.5568 0.5560 0.5552 0.5544 0.5544 0.5544 0.5544 0.5536 0.5505 0.5489 0.5489 0.5513 0.5536 0.5583 0.5615 0.5646 0.5654 0.5654 0.5638 0.5623 0.5607 0.5591 0.5576 0.5552 0.5536 0.5529 0.5513 0.5513 0.5505 0.5489 0.5474 0.5442 0.5411 0.5380 0.5372 0.5372 0.5380 0.5411 0.5450 0.5474 0.5497 0.5529 0.5552 0.5591 0.5623 0.5638 0.5654 0.5677 0.5701 0.5724 0.5740 0.5764 0.5787 0.5779 0.5771 0.5756 0.5724 0.5693 0.5654 0.5591 0.5552 0.5529 0.5489 0.5450 0.5419 0.5411 0.5411 0.5419 0.5450 0.5489 0.5521 0.5599 0.5646 0.5685 0.5717 0.5732 0.5748 0.5748 0.5740 0.5724 0.5717 0.5701 0.5685 0.5670 0.5638 0.5615 0.5599 0.5576 0.5536 0.5513 0.5497 0.5474 0.5450 0.5427 0.5427 0.5427 0.5411 0.5395 0.5395 0.5388 0.5395 0.5395 0.5403 0.5411 0.5419 0.5419 0.5411 0.5395 0.5388 0.5395 0.5395 0.5411 0.5427 0.5435 0.5450 0.5466 0.5458 0.5458 0.5450 0.5458 0.5450 0.5435 0.5411 0.5395 0.5380 0.5364 0.5348 0.5325 0.5294 0.5278 0.5270 0.5262 0.5255 0.5247 0.5239 0.5231 0.5223 0.5223 0.5223 0.5215 0.5200 0.5184 0.5161 0.5145 0.5129 0.5114 0.5098 0.5067 0.5043 0.5027 0.5012 0.5020 0.5051 0.5090 0.5121 0.5137 0.5153 0.5168 0.5184 0.5184 0.5184 0.5184 0.5200 0.5223 0.5255 0.5286 0.5325 0.5356 0.5372 0.5395 0.5411 0.5411 0.5395 0.5395 0.5388 0.5388 0.5388 0.5403 0.5403 0.5411 0.5419 0.5411 0.5395 0.5380 0.5356 0.5364 0.5372 0.5380 0.5395 0.5395 0.5403 0.5411 0.5419 0.5427 0.5435 0.5442 0.5450 0.5442 0.5427 0.5395 0.5372 0.5348 0.5348 0.5348 0.5341 0.5333 0.5325 0.5309 0.5301 0.5309 0.5309 0.5309 0.5301 0.5309 0.5309 0.5317 0.5317 0.5309 0.5325 0.5325 0.5317 0.5309 0.5294 0.5286 0.5286 0.5294 0.5301 0.5301 0.5294 0.5294 0.5278
0.5474 0.5497 0.5521 0.5536 0.5544 0.5544 0.5544 0.5544 0.5536 0.5536 0.5536 0.5536 0.5536 0.5529 0.5529 0.5529 0.5529 0.5513 0.5489 0.5482 0.5482 0.5505 0.5529 0.5568 0.5607 0.5630 0.5646 0.5630 0.5615 0.5599 0.5599 0.5583 0.5560 0.5536 0.5529 0.5513 0.5497 0.5497 0.5497 0.5489 0.5474 0.5458 0.5419 0.5388 0.5372 0.5380 0.5388 0.5419 0.5442 0.5474 0.5505 0.5544 0.5568 0.5591 0.5615 0.5638 0.5662 0.5677 0.5701 0.5717 0.5732 0.5740 0.5764 0.5764 0.5764 0.5756 0.5724 0.5685 0.5630 0.5576 0.5544 0.5521 0.5489 0.5427 0.5403 0.5388 0.5380 0.5403 0.5435 0.5466 0.5497 0.5544 0.5599 0.5654 0.5693 0.5709 0.5717 0.5724 0.5717 0.5709 0.5693 0.5677 0.5670 0.5646 0.5615 0.5591 0.5568 0.5552 0.5536 0.5521 0.5505 0.5489 0.5458 0.5435 0.5419 0.5403 0.5380 0.5372 0.5364 0.5356 0.5356 0.5364 0.5372 0.5395 0.5403 0.5411 0.5395 0.5380 0.5380 0.5388 0.5388 0.5395 0.5395 0.5403 0.5427 0.5442 0.5450 0.5442 0.5450 0.5442 0.5442 0.5419 0.5395 0.5372 0.5356 0.5341 0.5317 0.5294 0.5278 0.5262 0.5262 0.5255 0.5239 0.5231 0.5223 0.5208 0.5208 0.5200 0.5192 0.5192 0.5184 0.5168 0.5153 0.5129 0.5114 0.5098 0.5082 0.5051 0.5035 0.5035 0.5035 0.5059 0.5106 0.5137 0.5145 0.5145 0.5168 0.5192 0.5223 0.5239 0.5239 0.5239 0.5247 0.5270 0.5294 0.5325 0.5356 0.5380 0.5403 0.5419 0.5435 0.5435 0.5435 0.5427 0.5419 0.5403 0.5403 0.5403 0.5403 0.5403 0.5403 0.5395 0.5380 0.5356 0.5348 0.5348 0.5356 0.5364 0.5380 0.5395 0.5411 0.5427 0.5435 0.5442 0.5435 0.5435 0.5442 0.5435 0.5411 0.5388 0.5356 0.5341 0.5341 0.5341 0.5341 0.5333 0.5325 0.5325 0.5317 0.5325 0.5333 0.5333 0.5325 0.5325 0.5341 0.5341 0.5325 0.5317 0.5325 0.5333 0.5333 0.5333 0.5317 0.5309 0.5309 0.5309 0.5317 0.5317 0.5317 0.5309 0.5301
0.5442 0.5474 0.5497 0.5513 0.5513 0.5521 0.5513 0.5513 0.5505 0.5505 0.5521 0.5529 0.5536 0.5529 0.5521 0.5513 0.5505 0.5489 0.5466 0.5458 0.5466 0.5505 0.5536 0.5568 0.5599 0.5623 0.5630 0.5623 0.5599 0.5591 0.5583 0.5568 0.5544 0.5529 0.5521 0.5505 0.5489 0.5482 0.5482 0.5474 0.5466 0.5458 0.5435 0.5403 0.5372 0.5364 0.5388 0.5419 0.5450 0.5482 0.5513 0.5552 0.5583 0.5607 0.5623 0.5638 0.5646 0.5662 0.5685 0.5701 0.5709 0.5724 0.5740 0.5748 0.5748 0.5740 0.5717 0.5685 0.5630 0.5568 0.5536 0.5513 0.5466 0.5435 0.5403 0.5388 0.5372 0.5380 0.5411 0.5450 0.5489 0.5536 0.5607 0.5646 0.5670 0.5693 0.5701 0.5693 0.5685 0.5677 0.5670 0.5654 0.5638 0.5607 0.5607 0.5583 0.5560 0.5529 0.5513 0.5505 0.5497 0.5474 0.5450 0.5419 0.5411 0.5395 0.5380 0.5364 0.5341 0.5333 0.5333 0.5333 0.5348 0.5364 0.5388 0.5395 0.5388 0.5372 0.5372 0.5380 0.5380 0.5380 0.5388 0.5388 0.5403 0.5427 0.5442 0.5450 0.5442 0.5442 0.5435 0.5419 0.5395 0.5364 0.5341 0.5325 0.5309 0.5286 0.5262 0.5255 0.5247 0.5239 0.5223 0.5208 0.5200 0.5192 0.5184 0.5168 0.5161 0.5168 0.5161 0.5153 0.5137 0.5129 0.5114 0.5098 0.5074 0.5051 0.5051 0.5067 0.5074 0.5090 0.5114 0.5137 0.5161 0.5176 0.5192 0.5231 0.5262 0.5286 0.5294 0.5301 0.5317 0.5325 0.5341 0.5364 0.5388 0.5403 0.5419 0.5427 0.5435 0.5442 0.5442 0.5442 0.5427 0.5411 0.5395 0.5388 0.5380 0.5372 0.5372 0.5356 0.5341 0.5333 0.5317 0.5325 0.5325 0.5333 0.5356 0.5380 0.5388 0.5395 0.5395 0.5395 0.5395 0.5395 0.5403 0.5388 0.5364 0.5356 0.5341 0.5325 0.5325 0.5317 0.5301 0.5301 0.5309 0.5317 0.5317 0.5325 0.5325 0.5333 0.5333 0.5333 0.5341 0.5341 0.5333 0.5333 0.5333 0.5333 0.5348 0.5356 0.5356 0.5333 0.5325 0.5317 0.5317 0.5333 0.5341 0.5325 0.5309
0.5427 0.5442 0.5458 0.5474 0.5489 0.5497 0.5489 0.5482 0.5482 0.5489 0.5497 0.5513 0.5529 0.5529 0.5505 0.5489 0.5482 0.5474 0.5458 0.5458 0.5474 0.5497 0.5536 0.5568 0.5591 0.5615 0.5615 0.5607 0.5591 0.5576 0.5576 0.5568 0.5544 0.5529 0.5521 0.5505 0.5482 0.5466 0.5466 0.5458 0.5458 0.5450 0.5435 0.5403 0.5372 0.5364 0.5380 0.5419 0.5458 0.5497 0.5521 0.5560 0.5583 0.5615 0.5615 0.5615 0.5615 0.5630 0.5654 0.5677 0.5693 0.5717 0.5740 0.5740 0.5732 0.5724 0.5709 0.5677 0.5607 0.5552 0.5521 0.5482 0.5450 0.5427 0.5411 0.5388 0.5356 0.5348 0.5388 0.5427 0.5474 0.5529 0.5583 0.5623 0.5654 0.5677 0.5677 0.5670 0.5662 0.5654 0.5638 0.5623 0.5599 0.5591 0.5583 0.5583 0.5544 0.5513 0.5482 0.5474 0.5466 0.5458 0.5442 0.5427 0.5419 0.5411 0.5395 0.5364 0.5348 0.5333 0.5325 0.5325 0.5341 0.5356 0.5364 0.5372 0.5364 0.5356 0.5348 0.5356 0.5356 0.5372 0.5380 0.5380 0.5388 0.5411 0.5427 0.5435 0.5450 0.5450 0.5450 0.5435 0.5411 0.5380 0.5348 0.5325 0.5301 0.5278 0.5262 0.5247 0.5231 0.5223 0.5215 0.5200 0.5184 0.5176 0.5161 0.5153 0.5145 0.5145 0.5145 0.5137 0.5129 0.5121 0.5106 0.5082 0.5067 0.5067 0.5090 0.5098 0.5106 0.5106 0.5114 0.5129 0.5153 0.5184 0.5208 0.5255 0.5294 0.5317 0.5333 0.5341 0.5356 0.5364 0.5364 0.5380 0.5395 0.5411 0.5419 0.5419 0.5427 0.5427 0.5427 0.5427 0.5411 0.5403 0.5395 0.5372 0.5364 0.5348 0.5348 0.5333 0.5325 0.5317 0.5309 0.5309 0.5301 0.5301 0.5325 0.5348 0.5356 0.5356 0.5348 0.5341 0.5341 0.5348 0.5348 0.5341 0.5341 0.5333 0.5317 0.5301 0.5294 0.5278 0.5270 0.5278 0.5294 0.5301 0.5301 0.5301 0.5309 0.5317 0.5333 0.5333 0.5333 0.5333 0.5333 0.5333 0.5333 0.5341 0.5348 0.5356 0.5356 0.5356 0.5341 0.5341 0.5348 0.5364 0.5372 0.5364 0.5348
0.5403 0.5419 0.5442 0.5458 0.5466 0.5466 0.5466 0.5458 0.5474 0.5482 0.5497 0.5505 0.5521 0.5521 0.5505 0.5482 0.5474 0.5474 0.5482 0.5474 0.5474 0.5489 0.5529 0.5560 0.5576 0.5599 0.5607 0.5599 0.5591 0.5576 0.5560 0.5544 0.5536 0.5529 0.5521 0.5505 0.5482 0.5466 0.5458 0.5450 0.5442 0.5435 0.5427 0.5395 0.5364 0.5356 0.5372 0.5403 0.5450 0.5482 0.5521 0.5560 0.5599 0.5607 0.5599 0.5591 0.5591 0.5607 0.5630 0.5654 0.5677 0.5701 0.5717 0.5717 0.5701 0.5693 0.5685 0.5654 0.5599 0.5568 0.5521 0.5474 0.5435 0.5403 0.5388 0.5356 0.5333 0.5333 0.5356 0.5395 0.5450 0.5505 0.5544 0.5599 0.5646 0.5670 0.5662 0.5638 0.5630 0.5623 0.5607 0.5607 0.5591 0.5576 0.5576 0.5568 0.5544 0.5497 0.5458 0.5435 0.5435 0.5419 0.5403 0.5419 0.5419 0.5411 0.5388 0.5372 0.5356 0.5341 0.5325 0.5317 0.5325 0.5325 0.5325 0.5333 0.5325 0.5325 0.5325 0.5341 0.5341 0.5364 0.5364 0.5364 0.5372 0.5380 0.5395 0.5427 0.5450 0.5458 0.5458 0.5442 0.5419 0.5395 0.5356 0.5325 0.5309 0.5294 0.5278 0.5255 0.5239 0.5223 0.5223 0.5215 0.5192 0.5176 0.5168 0.5153 0.5153 0.5145 0.5137 0.5129 0.5114 0.5098 0.5106 0.5114 0.5106 0.5114 0.5114 0.5114 0.5121 0.5129 0.5137 0.5145 0.5161 0.5184 0.5231 0.5262 0.5301 0.5341 0.5348 0.5356 0.5364 0.5380 0.5388 0.5395 0.5411 0.5419 0.5419 0.5411 0.5403 0.5403 0.5403 0.5395 0.5388 0.5380 0.5364 0.5356 0.5348 0.5341 0.5325 0.5317 0.5309 0.5301 0.5294 0.5294 0.5278 0.5278 0.5286 0.5309 0.5333 0.5333 0.5317 0.5309 0.5309 0.5309 0.5309 0.5317 0.5309 0.5309 0.5294 0.5278 0.5262 0.5255 0.5255 0.5262 0.5278 0.5286 0.5294 0.5286 0.5294 0.5309 0.5317 0.5317 0.5317 0.5317 0.5317 0.5309 0.5317 0.5325 0.5325 0.5333 0.5341 0.5333 0.5333 0.5341 0.5348 0.5356 0.5364 0.5364 0.5380
0.5395 0.5403 0.5427 0.5442 0.5442 0.5450 0.5442 0.5450 0.5458 0.5474 0.5482 0.5497 0.5505 0.5513 0.5505 0.5482 0.5474 0.5474 0.5474 0.5466 0.5466 0.5489 0.5529 0.5544 0.5552 0.5568 0.5576 0.5576 0.5568 0.5544 0.5521 0.5513 0.5505 0.5505 0.5513 0.5497 0.5474 0.5458 0.5450 0.5442 0.5419 0.5411 0.5395 0.5372 0.5341 0.5333 0.5356 0.5388 0.5427 0.5466 0.5505 0.5544 0.5568 0.5576 0.5568 0.5568 0.5568 0.5599 0.5615 0.5638 0.5654 0.5670 0.5685 0.5685 0.5670 0.5662 0.5654 0.5630 0.5591 0.5568 0.5536 0.5482 0.5435 0.5403 0.5380 0.5348 0.5333 0.5333 0.5348 0.5388 0.5435 0.5489 0.5544 0.5583 0.5607 0.5638 0.5623 0.5599 0.5599 0.5599 0.5607 0.5599 0.5576 0.5568 0.5560 0.5552 0.5521 0.5482 0.5450 0.5435 0.5419 0.5395 0.5388 0.5388 0.5388 0.5380 0.5372 0.5356 0.5348 0.5333 0.5317 0.5294 0.5286 0.5278 0.5278 0.5286 0.5294 0.5301 0.5309 0.5317 0.5317 0.5341 0.5348 0.5356 0.5364 0.5380 0.5403 0.5427 0.5442 0.5458 0.5458 0.5458 0.5435 0.5403 0.5372 0.5341 0.5325 0.5301 0.5286 0.5270 0.5247 0.5239 0.5239 0.5231 0.5208 0.5192 0.5176 0.5176 0.5168 0.5153 0.5145 0.5129 0.5114 0.5114 0.5129 0.5153 0.5161 0.5161 0.5161 0.5153 0.5161 0.5168 0.5176 0.5184 0.5200 0.5223 0.5239 0.5262 0.5294 0.5325 0.5341 0.5348 0.5364 0.5380 0.5395 0.5411 0.5419 0.5427 0.5419 0.5411 0.5395 0.5388 0.5388 0.5380 0.5364 0.5348 0.5333 0.5333 0.5325 0.5309 0.5294 0.5286 0.5278 0.5278 0.5278 0.5278 0.5262 0.5247 0.5247 0.5262 0.5278 0.5286 0.5286 0.5286 0.5294 0.5286 0.5294 0.5294 0.5294 0.5286 0.5278 0.5262 0.5255 0.5239 0.5231 0.5239 0.5247 0.5262 0.5270 0.5278 0.5278 0.5286 0.5294 0.5294 0.5301 0.5301 0.5301 0.5301 0.5309 0.5309 0.5301 0.5294 0.5294 0.5301 0.5309 0.5317 0.5317 0.5325 0.5325 0.5333 0.5348
0.5388 0.5388 0.5395 0.5419 0.5435 0.5442 0.5442 0.5442 0.5442 0.5442 0.5450 0.5466 0.5489 0.5497 0.5489 0.5466 0.5458 0.5450 0.5442 0.5442 0.5458 0.5489 0.5521 0.5521 0.5529 0.5529 0.5536 0.5529 0.5529 0.5505 0.5489 0.5482 0.5482 0.5489 0.5489 0.5482 0.5466 0.5442 0.5435 0.5419 0.5403 0.5380 0.5364 0.5348 0.5333 0.5333 0.5341 0.5364 0.5403 0.5442 0.5474 0.5497 0.5513 0.5513 0.5521 0.5529 0.5544 0.5576 0.5607 0.5623 0.5638 0.5662 0.5662 0.5662 0.5654 0.5638 0.5623 0.5599 0.5576 0.5552 0.5521 0.5466 0.5419 0.5403 0.5372 0.5333 0.5317 0.5317 0.5325 0.5372 0.5419 0.5466 0.5505 0.5536 0.5576 0.5576 0.5576 0.5568 0.5560 0.5576 0.5583 0.5591 0.5583 0.5568 0.5552 0.5536 0.5513 0.5489 0.5474 0.5458 0.5435 0.5403 0.5388 0.5372 0.5364 0.5356 0.5341 0.5333 0.5325 0.5317 0.5309 0.5294 0.5270 0.5255 0.5255 0.5262 0.5262 0.5270 0.5278 0.5294 0.5294 0.5309 0.5333 0.5348 0.5364 0.5388 0.5411 0.5435 0.5450 0.5458 0.5466 0.5458 0.5450 0.5419 0.5380 0.5348 0.5325 0.5309 0.5301 0.5286 0.5270 0.5262 0.5262 0.5247 0.5239 0.5215 0.5200 0.5184 0.5168 0.5153 0.5145 0.5145 0.5137 0.5145 0.5153 0.5161 0.5161 0.5168 0.5176 0.5176 0.5184 0.5184 0.5192 0.5208 0.5223 0.5231 0.5247 0.5262 0.5294 0.5309 0.5325 0.5341 0.5348 0.5364 0.5380 0.5388 0.5403 0.5403 0.5403 0.5403 0.5388 0.5380 0.5372 0.5364 0.5348 0.5333 0.5317 0.5309 0.5301 0.5294 0.5278 0.5262 0.5255 0.5255 0.5262 0.5255 0.5239 0.5231 0.5223 0.5223 0.5231 0.5239 0.5247 0.5262 0.5262 0.5270 0.5270 0.5278 0.5270 0.5262 0.5255 0.5239 0.5231 0.5223 0.5215 0.5215 0.5215 0.5223 0.5239 0.5255 0.5255 0.5262 0.5262 0.5262 0.5270 0.5278 0.5278 0.5278 0.5286 0.5278 0.5270 0.5255 0.5255 0.5262 0.5270 0.5278 0.5286 0.5278 0.5278 0.5286 0.5309
0.5372 0.5380 0.5388 0.5411 0.5435 0.5442 0.5442 0.5435 0.5435 0.5427 0.5435 0.5458 0.5466 0.5466 0.5450 0.5435 0.5427 0.5427 0.5419 0.5427 0.5442 0.5458 0.5474 0.5489 0.5497 0.5505 0.5505 0.5505 0.5505 0.5489 0.5474 0.5474 0.5474 0.5474 0.5482 0.5482 0.5466 0.5442 0.5435 0.5419 0.5395 0.5364 0.5348 0.5341 0.5333 0.5333 0.5333 0.5348 0.5380 0.5403 0.5427 0.5450 0.5450 0.5466 0.5482 0.5505 0.5521 0.5560 0.5591 0.5607 0.5623 0.5638 0.5646 0.5646 0.5638 0.5623 0.5599 0.5576 0.5544 0.5505 0.5482 0.5442 0.5411 0.5380 0.5348 0.5317 0.5294 0.5301 0.5317 0.5356 0.5411 0.5458 0.5489 0.5513 0.5529 0.5544 0.5544 0.5529 0.5521 0.5529 0.5560 0.5583 0.5583 0.5583 0.5576 0.5560 0.5544 0.5521 0.5505 0.5482 0.5458 0.5427 0.5403 0.5388 0.5364 0.5341 0.5325 0.5301 0.5294 0.5294 0.5286 0.5286 0.5270 0.5255 0.5247 0.5247 0.5255 0.5262 0.5278 0.5294 0.5294 0.5309 0.5333 0.5348 0.5364 0.5388 0.5411 0.5427 0.5435 0.5435 0.5427 0.5427 0.5419 0.5388 0.5364 0.5348 0.5333 0.5325 0.5317 0.5309 0.5294 0.5286 0.5278 0.5270 0.5255 0.5231 0.5215 0.5200 0.5184 0.5176 0.5176 0.5168 0.5168 0.5168 0.5168 0.5161 0.5153 0.5161 0.5168 0.5176 0.5200 0.5208 0.5223 0.5239 0.5255 0.5278 0.5301 0.5309 0.5317 0.5317 0.5325 0.5325 0.5333 0.5333 0.5341 0.5356 0.5364 0.5372 0.5364 0.5372 0.5364 0.5341 0.5341 0.5333 0.5325 0.5317 0.5301 0.5286 0.5278 0.5278 0.5270 0.5262 0.5247 0.5239 0.5231 0.5231 0.5223 0.5208 0.5200 0.5200 0.5200 0.5200 0.5215 0.5223 0.5231 0.5231 0.5239 0.5239 0.5239 0.5239 0.5231 0.5223 0.5223 0.5223 0.5215 0.5208 0.5200 0.5200 0.5208 0.5215 0.5231 0.5239 0.5239 0.5247 0.5247 0.5247 0.5247 0.5231 0.5231 0.5247 0.5239 0.5231 0.5223 0.5231 0.5239 0.5239 0.5239 0.5247 0.5239 0.5239 0.5255
0.5356 0.5364 0.5372 0.5403 0.5427 0.5435 0.5435 0.5427 0.5419 0.5411 0.5427 0.5435 0.5442 0.5442 0.5435 0.5419 0.5403 0.5395 0.5395 0.5395 0.5419 0.5442 0.5466 0.5466 0.5474 0.5482 0.5489 0.5489 0.5489 0.5474 0.5458 0.5458 0.5458 0.5466 0.5466 0.5466 0.5450 0.5442 0.5442 0.5435 0.5403 0.5380 0.5356 0.5341 0.5325 0.5325 0.5325 0.5333 0.5348 0.5372 0.5388 0.5403 0.5419 0.5450 0.5489 0.5513 0.5529 0.5552 0.5576 0.5591 0.5599 0.5607 0.5615 0.5615 0.5615 0.5607 0.5576 0.5544 0.5497 0.5458 0.5435 0.5411 0.5380 0.5356 0.5333 0.5309 0.5294 0.5301 0.5317 0.5333 0.5388 0.5427 0.5466 0.5489 0.5497 0.5505 0.5489 0.5482 0.5482 0.5497 0.5529 0.5560 0.5591 0.5599 0.5591 0.5576 0.5560 0.5536 0.5505 0.5489 0.5474 0.5442 0.5419 0.5388 0.5364 0.5348 0.5333 0.5309 0.5278 0.5262 0.5262 0.5262 0.5262 0.5255 0.5255 0.5255 0.5255 0.5270 0.5286 0.5301 0.5301 0.5325 0.5333 0.5348 0.5364 0.5380 0.5395 0.5403 0.5411 0.5403 0.5395 0.5388 0.5372 0.5364 0.5356 0.5341 0.5333 0.5333 0.5341 0.5341 0.5333 0.5317 0.5309 0.5294 0.5270 0.5255 0.5239 0.5231 0.5215 0.5215 0.5200 0.5192 0.5192 0.5192 0.5184 0.5176 0.5168 0.5176 0.5184 0.5192 0.5208 0.5231 0.5255 0.5278 0.5309 0.5325 0.5333 0.5333 0.5333 0.5317 0.5301 0.5301 0.5301 0.5301 0.5301 0.5317 0.5333 0.5333 0.5333 0.5317 0.5294 0.5294 0.5309 0.5309 0.5309 0.5294 0.5278 0.5262 0.5262 0.5255 0.5247 0.5231 0.5223 0.5215 0.5215 0.5208 0.5192 0.5192 0.5184 0.5176 0.5168 0.5176 0.5184 0.5192 0.5208 0.5215 0.5215 0.5215 0.5215 0.5208 0.5215 0.5215 0.5215 0.5208 0.5200 0.5192 0.5168 0.5161 0.5161 0.5176 0.5192 0.5208 0.5208 0.5208 0.5208 0.5208 0.5192 0.5192 0.5200 0.5200 0.5208 0.5208 0.5200 0.5208 0.5208 0.5215 0.5223 0.5223 0.5223 0.5215 0.5223
0.5333 0.5333 0.5341 0.5364 0.5388 0.5411 0.5411 0.5395 0.5380 0.5395 0.5411 0.5411 0.5419 0.5427 0.5427 0.5403 0.5380 0.5364 0.5372 0.5380 0.5411 0.5427 0.5435 0.5442 0.5458 0.5474 0.5474 0.5474 0.5474 0.5466 0.5450 0.5442 0.5450 0.5450 0.5458 0.5450 0.5442 0.5435 0.5419 0.5411 0.5395 0.5372 0.5348 0.5325 0.5317 0.5317 0.5325 0.5333 0.5341 0.5356 0.5372 0.5395 0.5427 0.5474 0.5497 0.5521 0.5536 0.5552 0.5568 0.5576 0.5576 0.5576 0.5583 0.5591 0.5591 0.5576 0.5560 0.5521 0.5489 0.5450 0.5419 0.5388 0.5364 0.5333 0.5317 0.5301 0.5286 0.5286 0.5294 0.5317 0.5341 0.5388 0.5427 0.5450 0.5458 0.5450 0.5442 0.5442 0.5458 0.5474 0.5497 0.5536 0.5583 0.5599 0.5591 0.5576 0.5552 0.5536 0.5505 0.5489 0.5458 0.5427 0.5395 0.5372 0.5364 0.5356 0.5341 0.5317 0.5286 0.5255 0.5247 0.5239 0.5239 0.5239 0.5247 0.5255 0.5270 0.5286 0.5301 0.5317 0.5317 0.5333 0.5348 0.5356 0.5372 0.5380 0.5388 0.5395 0.5395 0.5388 0.5380 0.5364 0.5356 0.5356 0.5356 0.5348 0.5341 0.5348 0.5364 0.5364 0.5356 0.5348 0.5348 0.5333 0.5301 0.5278 0.5270 0.5247 0.5239 0.5223 0.5215 0.5200 0.5200 0.5192 0.5192 0.5192 0.5192 0.5192 0.5192 0.5192 0.5215 0.5239 0.5270 0.5294 0.5325 0.5341 0.5333 0.5325 0.5317 0.5294 0.5270 0.5255 0.5255 0.5270 0.5278 0.5286 0.5301 0.5294 0.5286 0.5270 0.5270 0.5262 0.5270 0.5278 0.5270 0.5255 0.5255 0.5255 0.5247 0.5231 0.5215 0.5208 0.5192 0.5192 0.5184 0.5176 0.5168 0.5161 0.5153 0.5145 0.5153 0.5153 0.5161 0.5161 0.5176 0.5184 0.5184 0.5184 0.5184 0.5184 0.5192 0.5192 0.5192 0.5184 0.5184 0.5168 0.5137 0.5121 0.5121 0.5129 0.5137 0.5145 0.5161 0.5153 0.5145 0.5145 0.5153 0.5161 0.5168 0.5168 0.5168 0.5168 0.5176 0.5176 0.5184 0.5192 0.5200 0.5200 0.5200 0.5200 0.5208
