0.4832 0.4816 0.4792 0.4785 0.4761 0.4738 0.4714 0.4699 0.4691 0.4691 0.4675 0.4659 0.4636 0.4628 0.4620 0.4620 0.4620 0.4620 0.4636 0.4644 0.4644 0.4644 0.4636 0.4620 0.4605 0.4589 0.4573 0.4542 0.4534 0.4526 0.4526 0.4518 0.4495 0.4487 0.4495 0.4495 0.4503 0.4503 0.4511 0.4511 0.4511 0.4526 0.4542 0.4550 0.4550 0.4558 0.4565 0.4565 0.4558 0.4550 0.4542 0.4526 0.4511 0.4487 0.4479 0.4495 0.4518 0.4558 0.4589 0.4605 0.4612 0.4612 0.4612 0.4620 0.4620 0.4620 0.4612 0.4612 0.4628 0.4659 0.4683 0.4699 0.4714 0.4714 0.4714 0.4714 0.4730 0.4738 0.4738 0.4745 0.4753 0.4730 0.4706 0.4699 0.4706 0.4753 0.4785 0.4816 0.4839 0.4879 0.4910 0.4949 0.4996 0.5035 0.5067 0.5098 0.5114 0.5098 0.5090 0.5067 0.5043 0.5035 0.5027 0.5020 0.5012 0.5004 0.5004 0.4996 0.4973 0.4949 0.4941 0.4918 0.4886 0.4855 0.4824 0.4808 0.4808 0.4785 0.4753 0.4738 0.4714 0.4675 0.4667 0.4652 0.4644 0.4628 0.4612 0.4612 0.4620 0.4628 0.4636 0.4652 0.4675 0.4699 0.4722 0.4738 0.4745 0.4753 0.4777 0.4816 0.4832 0.4816 0.4785 0.4761 0.4738 0.4706 0.4675 0.4652 0.4636 0.4644 0.4652 0.4675 0.4699 0.4722 0.4761 0.4792 0.4816 0.4816 0.4792 0.4761 0.4722 0.4683 0.4667 0.4659 0.4652 0.4628 0.4605 0.4573 0.4550 0.4526 0.4511 0.4511 0.4526 0.4542 0.4573 0.4605 0.4628 0.4628 0.4620 0.4605 0.4597 0.4581 0.4550 0.4518 0.4534 0.4581 0.4636 0.4683 0.4722 0.4745 0.4745 0.4745 0.4745 0.4745 0.4730 0.4706 0.4675 0.4636 0.4620 0.4597 0.4558 0.4534 0.4526 0.4518 0.4534 0.4534 0.4526 0.4526 0.4511 0.4495 0.4471 0.4456 0.4440 0.4424 0.4417 0.4432 0.4448 0.4448 0.4448 0.4448 0.4440 0.4432 0.4424 0.4417 0.4393 0.4377 0.4362 0.4370 0.4370 0.4370 0.4377 0.4370 0.4362 0.4362 0.4362 0.4370 0.4362 0.4354 0.4323 0.4307 0.4307
0.4800 0.4792 0.4777 0.4753 0.4730 0.4706 0.4683 0.4683 0.4675 0.4675 0.4659 0.4644 0.4628 0.4620 0.4620 0.4620 0.4628 0.4628 0.4636 0.4636 0.4644 0.4644 0.4644 0.4628 0.4612 0.4597 0.4581 0.4558 0.4550 0.4542 0.4542 0.4518 0.4511 0.4495 0.4487 0.4479 0.4479 0.4487 0.4487 0.4495 0.4495 0.4503 0.4511 0.4526 0.4526 0.4526 0.4534 0.4542 0.4542 0.4542 0.4534 0.4526 0.4503 0.4487 0.4479 0.4487 0.4511 0.4550 0.4581 0.4597 0.4597 0.4605 0.4605 0.4597 0.4605 0.4605 0.4605 0.4605 0.4612 0.4636 0.4659 0.4667 0.4683 0.4675 0.4667 0.4675 0.4683 0.4691 0.4691 0.4699 0.4714 0.4706 0.4691 0.4683 0.4699 0.4745 0.4777 0.4800 0.4816 0.4855 0.4910 0.4957 0.4996 0.5027 0.5051 0.5067 0.5090 0.5074 0.5051 0.5035 0.5020 0.5004 0.4988 0.4980 0.4996 0.5004 0.5012 0.5004 0.4988 0.4980 0.4949 0.4926 0.4910 0.4879 0.4847 0.4824 0.4816 0.4800 0.4792 0.4769 0.4753 0.4699 0.4667 0.4659 0.4644 0.4628 0.4612 0.4605 0.4605 0.4612 0.4612 0.4628 0.4659 0.4683 0.4699 0.4714 0.4730 0.4738 0.4745 0.4785 0.4792 0.4777 0.4777 0.4769 0.4738 0.4714 0.4683 0.4667 0.4652 0.4636 0.4644 0.4652 0.4667 0.4699 0.4730 0.4769 0.4792 0.4800 0.4792 0.4761 0.4722 0.4675 0.4652 0.4628 0.4605 0.4581 0.4558 0.4550 0.4526 0.4511 0.4503 0.4503 0.4518 0.4534 0.4558 0.4581 0.4597 0.4605 0.4605 0.4605 0.4597 0.4573 0.4534 0.4518 0.4534 0.4581 0.4628 0.4675 0.4722 0.4745 0.4753 0.4753 0.4753 0.4745 0.4738 0.4722 0.4699 0.4667 0.4652 0.4636 0.4581 0.4534 0.4511 0.4495 0.4495 0.4503 0.4511 0.4518 0.4511 0.4511 0.4495 0.4464 0.4440 0.4409 0.4401 0.4409 0.4417 0.4424 0.4432 0.4440 0.4432 0.4432 0.4424 0.4409 0.4385 0.4370 0.4370 0.4370 0.4370 0.4370 0.4362 0.4354 0.4346 0.4346 0.4354 0.4354 0.4354 0.4346 0.4330 0.4315 0.4315
0.4761 0.4745 0.4730 0.4714 0.4699 0.4683 0.4667 0.4667 0.4667 0.4659 0.4652 0.4636 0.4620 0.4612 0.4612 0.4620 0.4620 0.4636 0.4636 0.4636 0.4636 0.4636 0.4628 0.4628 0.4612 0.4605 0.4581 0.4565 0.4565 0.4558 0.4550 0.4534 0.4511 0.4503 0.4495 0.4487 0.4479 0.4479 0.4479 0.4487 0.4479 0.4487 0.4495 0.4503 0.4503 0.4511 0.4511 0.4518 0.4518 0.4518 0.4518 0.4518 0.4511 0.4495 0.4487 0.4479 0.4487 0.4511 0.4542 0.4565 0.4573 0.4581 0.4581 0.4573 0.4573 0.4581 0.4589 0.4605 0.4612 0.4620 0.4628 0.4644 0.4636 0.4628 0.4628 0.4628 0.4628 0.4652 0.4659 0.4667 0.4675 0.4675 0.4683 0.4675 0.4691 0.4722 0.4753 0.4777 0.4808 0.4855 0.4910 0.4965 0.4996 0.5027 0.5051 0.5067 0.5067 0.5051 0.5027 0.5012 0.4996 0.4980 0.4965 0.4973 0.4988 0.5012 0.5027 0.5027 0.5020 0.4996 0.4965 0.4933 0.4918 0.4902 0.4871 0.4855 0.4847 0.4839 0.4824 0.4808 0.4777 0.4730 0.4691 0.4675 0.4652 0.4636 0.4628 0.4612 0.4597 0.4597 0.4597 0.4612 0.4644 0.4667 0.4691 0.4699 0.4706 0.4722 0.4730 0.4745 0.4761 0.4761 0.4777 0.4777 0.4753 0.4722 0.4699 0.4675 0.4652 0.4636 0.4620 0.4628 0.4644 0.4683 0.4706 0.4738 0.4769 0.4792 0.4792 0.4777 0.4738 0.4691 0.4652 0.4628 0.4589 0.4550 0.4526 0.4518 0.4518 0.4503 0.4495 0.4495 0.4503 0.4511 0.4542 0.4565 0.4581 0.4597 0.4612 0.4612 0.4589 0.4550 0.4518 0.4511 0.4534 0.4581 0.4644 0.4691 0.4722 0.4738 0.4745 0.4753 0.4753 0.4738 0.4738 0.4730 0.4699 0.4659 0.4659 0.4644 0.4597 0.4550 0.4511 0.4487 0.4487 0.4495 0.4495 0.4487 0.4495 0.4495 0.4479 0.4479 0.4448 0.4417 0.4409 0.4401 0.4401 0.4409 0.4417 0.4424 0.4424 0.4424 0.4417 0.4409 0.4393 0.4385 0.4377 0.4377 0.4377 0.4370 0.4346 0.4346 0.4346 0.4346 0.4346 0.4346 0.4346 0.4338 0.4330 0.4315 0.4315
0.4738 0.4722 0.4706 0.4699 0.4683 0.4659 0.4652 0.4652 0.4659 0.4652 0.4644 0.4628 0.4620 0.4620 0.4620 0.4620 0.4628 0.4644 0.4644 0.4644 0.4636 0.4636 0.4628 0.4620 0.4612 0.4605 0.4589 0.4573 0.4565 0.4565 0.4558 0.4542 0.4526 0.4518 0.4511 0.4503 0.4487 0.4479 0.4471 0.4479 0.4479 0.4479 0.4479 0.4479 0.4487 0.4495 0.4503 0.4503 0.4503 0.4503 0.4511 0.4518 0.4526 0.4511 0.4495 0.4479 0.4479 0.4487 0.4518 0.4534 0.4542 0.4550 0.4550 0.4542 0.4542 0.4550 0.4550 0.4573 0.4589 0.4605 0.4605 0.4597 0.4589 0.4581 0.4589 0.4597 0.4605 0.4612 0.4620 0.4628 0.4652 0.4675 0.4667 0.4659 0.4659 0.4683 0.4722 0.4777 0.4808 0.4855 0.4918 0.4965 0.5004 0.5027 0.5051 0.5067 0.5059 0.5027 0.5012 0.5004 0.4988 0.4973 0.4957 0.4965 0.4980 0.5012 0.5035 0.5043 0.5035 0.5012 0.4973 0.4957 0.4933 0.4918 0.4902 0.4886 0.4879 0.4871 0.4855 0.4824 0.4792 0.4761 0.4722 0.4699 0.4683 0.4667 0.4652 0.4620 0.4597 0.4589 0.4589 0.4589 0.4620 0.4652 0.4667 0.4675 0.4683 0.4699 0.4706 0.4730 0.4745 0.4761 0.4761 0.4777 0.4769 0.4745 0.4714 0.4683 0.4659 0.4628 0.4620 0.4620 0.4636 0.4659 0.4691 0.4714 0.4753 0.4785 0.4792 0.4769 0.4738 0.4699 0.4659 0.4636 0.4605 0.4565 0.4534 0.4550 0.4542 0.4511 0.4487 0.4479 0.4471 0.4487 0.4518 0.4550 0.4573 0.4589 0.4612 0.4605 0.4581 0.4542 0.4511 0.4511 0.4526 0.4581 0.4644 0.4699 0.4730 0.4745 0.4745 0.4745 0.4745 0.4738 0.4738 0.4730 0.4706 0.4675 0.4659 0.4644 0.4597 0.4565 0.4542 0.4526 0.4511 0.4495 0.4471 0.4464 0.4456 0.4456 0.4464 0.4471 0.4456 0.4432 0.4417 0.4401 0.4393 0.4393 0.4409 0.4417 0.4417 0.4417 0.4409 0.4401 0.4393 0.4393 0.4377 0.4377 0.4370 0.4354 0.4346 0.4346 0.4346 0.4346 0.4346 0.4354 0.4346 0.4338 0.4323 0.4323 0.4323
0.4745 0.4730 0.4706 0.4699 0.4675 0.4659 0.4652 0.4659 0.4667 0.4659 0.4652 0.4644 0.4644 0.4644 0.4644 0.4644 0.4644 0.4652 0.4644 0.4636 0.4636 0.4636 0.4628 0.4628 0.4612 0.4597 0.4589 0.4581 0.4573 0.4565 0.4558 0.4550 0.4542 0.4534 0.4526 0.4518 0.4503 0.4487 0.4479 0.4479 0.4479 0.4479 0.4479 0.4471 0.4471 0.4479 0.4487 0.4487 0.4487 0.4487 0.4503 0.4518 0.4534 0.4518 0.4495 0.4464 0.4464 0.4471 0.4495 0.4511 0.4511 0.4503 0.4511 0.4518 0.4518 0.4518 0.4518 0.4518 0.4534 0.4550 0.4558 0.4558 0.4550 0.4542 0.4542 0.4550 0.4565 0.4581 0.4589 0.4612 0.4652 0.4652 0.4644 0.4644 0.4644 0.4659 0.4706 0.4769 0.4832 0.4879 0.4941 0.5004 0.5035 0.5059 0.5067 0.5067 0.5051 0.5027 0.5004 0.4988 0.4973 0.4957 0.4941 0.4941 0.4957 0.4988 0.5027 0.5051 0.5051 0.5035 0.5004 0.4973 0.4957 0.4941 0.4941 0.4933 0.4918 0.4894 0.4863 0.4839 0.4816 0.4785 0.4753 0.4730 0.4714 0.4683 0.4659 0.4636 0.4612 0.4597 0.4581 0.4581 0.4605 0.4620 0.4636 0.4644 0.4659 0.4683 0.4691 0.4699 0.4722 0.4722 0.4738 0.4761 0.4777 0.4761 0.4738 0.4699 0.4675 0.4659 0.4644 0.4636 0.4620 0.4644 0.4667 0.4699 0.4738 0.4769 0.4761 0.4745 0.4722 0.4691 0.4675 0.4652 0.4628 0.4605 0.4581 0.4581 0.4558 0.4518 0.4479 0.4471 0.4456 0.4464 0.4479 0.4518 0.4542 0.4558 0.4573 0.4581 0.4558 0.4542 0.4526 0.4518 0.4542 0.4589 0.4644 0.4699 0.4730 0.4745 0.4753 0.4745 0.4738 0.4730 0.4730 0.4722 0.4706 0.4683 0.4667 0.4636 0.4605 0.4573 0.4565 0.4550 0.4526 0.4495 0.4471 0.4448 0.4440 0.4440 0.4440 0.4448 0.4448 0.4432 0.4417 0.4409 0.4385 0.4377 0.4377 0.4393 0.4393 0.4393 0.4393 0.4385 0.4393 0.4393 0.4377 0.4370 0.4354 0.4346 0.4346 0.4346 0.4346 0.4338 0.4346 0.4346 0.4346 0.4338 0.4330 0.4315 0.4315
0.4761 0.4745 0.4730 0.4714 0.4691 0.4675 0.4667 0.4667 0.4675 0.4667 0.4659 0.4659 0.4659 0.4667 0.4667 0.4652 0.4652 0.4644 0.4636 0.4636 0.4636 0.4628 0.4628 0.4628 0.4612 0.4597 0.4589 0.4589 0.4581 0.4565 0.4550 0.4542 0.4542 0.4534 0.4526 0.4526 0.4518 0.4503 0.4487 0.4479 0.4487 0.4487 0.4471 0.4464 0.4464 0.4471 0.4471 0.4471 0.4471 0.4479 0.4487 0.4503 0.4518 0.4518 0.4503 0.4471 0.4448 0.4456 0.4464 0.4479 0.4479 0.4479 0.4487 0.4487 0.4495 0.4495 0.4487 0.4487 0.4495 0.4511 0.4518 0.4511 0.4511 0.4511 0.4503 0.4511 0.4518 0.4534 0.4565 0.4597 0.4605 0.4605 0.4612 0.4620 0.4628 0.4652 0.4706 0.4777 0.4847 0.4894 0.4949 0.5012 0.5051 0.5059 0.5067 0.5059 0.5043 0.5020 0.4996 0.4973 0.4949 0.4918 0.4918 0.4926 0.4941 0.4973 0.5012 0.5035 0.5043 0.5035 0.5012 0.4980 0.4973 0.4965 0.4965 0.4965 0.4933 0.4910 0.4879 0.4855 0.4839 0.4816 0.4777 0.4753 0.4730 0.4714 0.4691 0.4659 0.4636 0.4612 0.4605 0.4589 0.4589 0.4589 0.4597 0.4612 0.4644 0.4659 0.4667 0.4675 0.4675 0.4691 0.4706 0.4738 0.4761 0.4761 0.4738 0.4714 0.4691 0.4675 0.4659 0.4628 0.4612 0.4620 0.4659 0.4691 0.4714 0.4722 0.4722 0.4706 0.4706 0.4706 0.4699 0.4683 0.4659 0.4628 0.4605 0.4589 0.4565 0.4534 0.4503 0.4471 0.4464 0.4448 0.4464 0.4479 0.4511 0.4526 0.4542 0.4542 0.4534 0.4518 0.4518 0.4526 0.4534 0.4589 0.4636 0.4683 0.4714 0.4738 0.4745 0.4738 0.4722 0.4714 0.4706 0.4699 0.4675 0.4667 0.4652 0.4628 0.4597 0.4573 0.4565 0.4542 0.4518 0.4495 0.4479 0.4464 0.4440 0.4424 0.4417 0.4409 0.4417 0.4424 0.4424 0.4409 0.4393 0.4370 0.4362 0.4346 0.4354 0.4370 0.4377 0.4377 0.4385 0.4377 0.4377 0.4354 0.4338 0.4330 0.4346 0.4354 0.4354 0.4354 0.4346 0.4346 0.4346 0.4338 0.4323 0.4307 0.4307
0.4777 0.4761 0.4745 0.4722 0.4706 0.4683 0.4675 0.4683 0.4683 0.4667 0.4659 0.4659 0.4659 0.4675 0.4675 0.4659 0.4652 0.4644 0.4644 0.4644 0.4636 0.4628 0.4636 0.4636 0.4620 0.4612 0.4597 0.4597 0.4589 0.4573 0.4558 0.4550 0.4534 0.4526 0.4534 0.4526 0.4518 0.4503 0.4495 0.4487 0.4487 0.4479 0.4471 0.4464 0.4464 0.4464 0.4464 0.4464 0.4464 0.4464 0.4479 0.4503 0.4518 0.4526 0.4503 0.4479 0.4456 0.4448 0.4456 0.4456 0.4464 0.4464 0.4471 0.4471 0.4471 0.4464 0.4464 0.4456 0.4464 0.4471 0.4471 0.4471 0.4471 0.4471 0.4479 0.4487 0.4495 0.4518 0.4542 0.4573 0.4597 0.4589 0.4597 0.4605 0.4612 0.4652 0.4691 0.4753 0.4824 0.4886 0.4957 0.5004 0.5035 0.5051 0.5043 0.5035 0.5027 0.5012 0.4988 0.4965 0.4926 0.4902 0.4886 0.4902 0.4918 0.4957 0.4988 0.5012 0.5020 0.5027 0.5012 0.4996 0.4980 0.4973 0.4973 0.4957 0.4941 0.4910 0.4894 0.4871 0.4847 0.4832 0.4800 0.4761 0.4738 0.4714 0.4699 0.4675 0.4652 0.4628 0.4605 0.4581 0.4565 0.4565 0.4573 0.4605 0.4628 0.4652 0.4652 0.4652 0.4652 0.4659 0.4683 0.4714 0.4738 0.4745 0.4738 0.4722 0.4714 0.4691 0.4659 0.4628 0.4612 0.4620 0.4636 0.4659 0.4667 0.4683 0.4683 0.4691 0.4699 0.4714 0.4714 0.4706 0.4675 0.4652 0.4628 0.4612 0.4581 0.4558 0.4526 0.4487 0.4456 0.4448 0.4456 0.4471 0.4487 0.4503 0.4511 0.4511 0.4503 0.4495 0.4511 0.4526 0.4550 0.4581 0.4628 0.4675 0.4706 0.4722 0.4722 0.4714 0.4706 0.4706 0.4699 0.4683 0.4667 0.4652 0.4636 0.4612 0.4589 0.4573 0.4558 0.4534 0.4511 0.4495 0.4487 0.4471 0.4448 0.4424 0.4409 0.4393 0.4393 0.4409 0.4417 0.4417 0.4401 0.4377 0.4354 0.4330 0.4330 0.4354 0.4370 0.4377 0.4377 0.4377 0.4370 0.4354 0.4338 0.4338 0.4354 0.4362 0.4370 0.4362 0.4346 0.4330 0.4338 0.4330 0.4330 0.4315 0.4315
0.4769 0.4761 0.4745 0.4722 0.4706 0.4691 0.4675 0.4683 0.4691 0.4683 0.4667 0.4667 0.4683 0.4691 0.4683 0.4667 0.4659 0.4659 0.4659 0.4659 0.4652 0.4644 0.4644 0.4644 0.4636 0.4620 0.4612 0.4605 0.4597 0.4581 0.4565 0.4550 0.4542 0.4534 0.4526 0.4526 0.4518 0.4511 0.4503 0.4495 0.4487 0.4487 0.4479 0.4479 0.4471 0.4464 0.4456 0.4456 0.4456 0.4456 0.4471 0.4495 0.4511 0.4511 0.4503 0.4479 0.4464 0.4456 0.4448 0.4440 0.4432 0.4432 0.4440 0.4448 0.4448 0.4448 0.4440 0.4432 0.4432 0.4440 0.4440 0.4440 0.4432 0.4440 0.4456 0.4487 0.4503 0.4511 0.4542 0.4565 0.4573 0.4573 0.4589 0.4597 0.4612 0.4644 0.4683 0.4738 0.4808 0.4863 0.4933 0.4988 0.5027 0.5035 0.5027 0.5020 0.5012 0.4996 0.4980 0.4949 0.4918 0.4879 0.4863 0.4863 0.4886 0.4926 0.4957 0.4973 0.4996 0.5004 0.5004 0.4988 0.4980 0.4973 0.4965 0.4949 0.4933 0.4918 0.4902 0.4886 0.4839 0.4808 0.4777 0.4753 0.4722 0.4691 0.4683 0.4667 0.4644 0.4612 0.4597 0.4573 0.4550 0.4542 0.4558 0.4581 0.4605 0.4628 0.4628 0.4620 0.4628 0.4652 0.4675 0.4691 0.4706 0.4714 0.4714 0.4714 0.4706 0.4691 0.4667 0.4644 0.4628 0.4628 0.4628 0.4620 0.4636 0.4652 0.4667 0.4691 0.4714 0.4730 0.4738 0.4722 0.4691 0.4659 0.4628 0.4597 0.4581 0.4565 0.4526 0.4487 0.4479 0.4471 0.4471 0.4479 0.4487 0.4487 0.4479 0.4487 0.4495 0.4487 0.4495 0.4518 0.4534 0.4573 0.4612 0.4659 0.4691 0.4706 0.4706 0.4706 0.4706 0.4699 0.4691 0.4675 0.4659 0.4644 0.4620 0.4605 0.4573 0.4565 0.4550 0.4518 0.4495 0.4487 0.4479 0.4464 0.4448 0.4432 0.4409 0.4401 0.4401 0.4409 0.4417 0.4409 0.4393 0.4377 0.4346 0.4323 0.4323 0.4330 0.4338 0.4362 0.4377 0.4385 0.4370 0.4354 0.4346 0.4346 0.4354 0.4354 0.4362 0.4354 0.4330 0.4323 0.4323 0.4338 0.4338 0.4338 0.4338
0.4761 0.4745 0.4730 0.4714 0.4706 0.4691 0.4683 0.4683 0.4691 0.4683 0.4683 0.4691 0.4706 0.4706 0.4706 0.4699 0.4683 0.4683 0.4683 0.4683 0.4691 0.4675 0.4652 0.4644 0.4636 0.4628 0.4620 0.4612 0.4605 0.4589 0.4573 0.4558 0.4550 0.4542 0.4534 0.4534 0.4534 0.4526 0.4511 0.4495 0.4487 0.4487 0.4487 0.4487 0.4487 0.4471 0.4456 0.4448 0.4448 0.4456 0.4464 0.4471 0.4487 0.4487 0.4487 0.4479 0.4471 0.4456 0.4440 0.4424 0.4417 0.4409 0.4409 0.4409 0.4417 0.4417 0.4417 0.4417 0.4424 0.4424 0.4432 0.4432 0.4424 0.4417 0.4440 0.4471 0.4487 0.4503 0.4518 0.4550 0.4550 0.4550 0.4558 0.4573 0.4605 0.4636 0.4683 0.4738 0.4800 0.4855 0.4902 0.4965 0.4996 0.5020 0.5012 0.5004 0.4996 0.4980 0.4965 0.4933 0.4894 0.4863 0.4839 0.4839 0.4863 0.4894 0.4926 0.4933 0.4949 0.4965 0.4965 0.4973 0.4965 0.4965 0.4957 0.4949 0.4926 0.4918 0.4894 0.4871 0.4832 0.4792 0.4769 0.4753 0.4730 0.4699 0.4675 0.4675 0.4659 0.4628 0.4612 0.4589 0.4565 0.4550 0.4558 0.4565 0.4581 0.4597 0.4589 0.4597 0.4605 0.4628 0.4652 0.4675 0.4683 0.4683 0.4683 0.4675 0.4683 0.4675 0.4652 0.4628 0.4620 0.4612 0.4605 0.4605 0.4605 0.4628 0.4644 0.4667 0.4706 0.4745 0.4761 0.4738 0.4706 0.4659 0.4620 0.4589 0.4573 0.4573 0.4565 0.4534 0.4511 0.4487 0.4487 0.4487 0.4479 0.4471 0.4464 0.4471 0.4479 0.4479 0.4471 0.4479 0.4511 0.4542 0.4589 0.4644 0.4675 0.4699 0.4691 0.4691 0.4683 0.4683 0.4675 0.4659 0.4644 0.4620 0.4597 0.4581 0.4565 0.4558 0.4534 0.4503 0.4479 0.4471 0.4464 0.4448 0.4440 0.4424 0.4424 0.4417 0.4409 0.4401 0.4401 0.4401 0.4385 0.4362 0.4338 0.4315 0.4307 0.4307 0.4323 0.4346 0.4370 0.4370 0.4362 0.4346 0.4338 0.4338 0.4330 0.4330 0.4330 0.4323 0.4315 0.4315 0.4323 0.4338 0.4346 0.4346 0.4346
0.4745 0.4738 0.4722 0.4714 0.4706 0.4699 0.4691 0.4691 0.4683 0.4691 0.4691 0.4706 0.4722 0.4730 0.4730 0.4730 0.4722 0.4714 0.4706 0.4706 0.4714 0.4706 0.4691 0.4667 0.4652 0.4636 0.4636 0.4628 0.4612 0.4597 0.4581 0.4573 0.4565 0.4565 0.4558 0.4558 0.4558 0.4550 0.4526 0.4503 0.4479 0.4479 0.4487 0.4487 0.4479 0.4471 0.4456 0.4448 0.4456 0.4456 0.4464 0.4471 0.4464 0.4471 0.4487 0.4479 0.4471 0.4464 0.4440 0.4424 0.4409 0.4401 0.4401 0.4401 0.4401 0.4401 0.4409 0.4417 0.4417 0.4424 0.4424 0.4417 0.4401 0.4393 0.4409 0.4432 0.4448 0.4471 0.4503 0.4526 0.4534 0.4534 0.4534 0.4550 0.4589 0.4636 0.4675 0.4722 0.4769 0.4816 0.4871 0.4918 0.4957 0.4973 0.4988 0.4996 0.4988 0.4965 0.4941 0.4918 0.4886 0.4855 0.4824 0.4816 0.4832 0.4871 0.4886 0.4902 0.4918 0.4941 0.4949 0.4949 0.4949 0.4949 0.4949 0.4933 0.4926 0.4902 0.4886 0.4871 0.4839 0.4808 0.4777 0.4745 0.4730 0.4706 0.4699 0.4706 0.4691 0.4659 0.4636 0.4612 0.4597 0.4573 0.4565 0.4565 0.4565 0.4573 0.4565 0.4565 0.4589 0.4605 0.4612 0.4644 0.4659 0.4659 0.4652 0.4652 0.4652 0.4644 0.4636 0.4620 0.4605 0.4589 0.4581 0.4573 0.4573 0.4597 0.4628 0.4659 0.4691 0.4738 0.4753 0.4738 0.4691 0.4652 0.4620 0.4597 0.4589 0.4589 0.4573 0.4558 0.4526 0.4503 0.4487 0.4471 0.4464 0.4448 0.4440 0.4448 0.4456 0.4464 0.4464 0.4471 0.4487 0.4511 0.4550 0.4597 0.4644 0.4667 0.4667 0.4659 0.4652 0.4652 0.4644 0.4636 0.4612 0.4597 0.4581 0.4565 0.4558 0.4550 0.4526 0.4479 0.4456 0.4448 0.4440 0.4424 0.4424 0.4424 0.4424 0.4417 0.4401 0.4385 0.4377 0.4377 0.4370 0.4362 0.4354 0.4330 0.4307 0.4307 0.4315 0.4330 0.4346 0.4346 0.4346 0.4338 0.4330 0.4315 0.4307 0.4299 0.4291 0.4299 0.4307 0.4315 0.4330 0.4338 0.4346 0.4338 0.4338
0.4738 0.4730 0.4722 0.4714 0.4714 0.4714 0.4706 0.4699 0.4699 0.4691 0.4699 0.4722 0.4738 0.4745 0.4753 0.4753 0.4753 0.4745 0.4738 0.4730 0.4730 0.4722 0.4706 0.4691 0.4675 0.4659 0.4644 0.4636 0.4620 0.4605 0.4597 0.4589 0.4581 0.4581 0.4573 0.4573 0.4573 0.4558 0.4534 0.4503 0.4487 0.4479 0.4487 0.4479 0.4471 0.4464 0.4456 0.4448 0.4448 0.4456 0.4464 0.4464 0.4464 0.4464 0.4471 0.4471 0.4471 0.4464 0.4440 0.4424 0.4417 0.4409 0.4409 0.4409 0.4409 0.4409 0.4409 0.4417 0.4417 0.4417 0.4417 0.4409 0.4401 0.4393 0.4393 0.4401 0.4409 0.4432 0.4471 0.4503 0.4518 0.4518 0.4518 0.4526 0.4565 0.4612 0.4644 0.4675 0.4706 0.4761 0.4824 0.4863 0.4902 0.4941 0.4973 0.4980 0.4973 0.4949 0.4918 0.4894 0.4871 0.4839 0.4808 0.4792 0.4808 0.4832 0.4847 0.4863 0.4902 0.4926 0.4933 0.4941 0.4949 0.4941 0.4933 0.4918 0.4902 0.4886 0.4879 0.4863 0.4847 0.4824 0.4785 0.4753 0.4722 0.4706 0.4714 0.4722 0.4699 0.4675 0.4644 0.4628 0.4612 0.4597 0.4581 0.4573 0.4565 0.4550 0.4534 0.4534 0.4558 0.4581 0.4597 0.4612 0.4620 0.4620 0.4628 0.4636 0.4636 0.4628 0.4620 0.4620 0.4597 0.4565 0.4558 0.4550 0.4558 0.4581 0.4605 0.4652 0.4675 0.4706 0.4714 0.4691 0.4675 0.4652 0.4636 0.4620 0.4605 0.4597 0.4573 0.4558 0.4534 0.4518 0.4487 0.4464 0.4448 0.4424 0.4424 0.4424 0.4448 0.4456 0.4464 0.4479 0.4487 0.4495 0.4511 0.4542 0.4581 0.4612 0.4644 0.4644 0.4636 0.4628 0.4620 0.4612 0.4597 0.4581 0.4573 0.4565 0.4550 0.4542 0.4511 0.4471 0.4448 0.4424 0.4417 0.4409 0.4409 0.4417 0.4409 0.4401 0.4385 0.4370 0.4354 0.4354 0.4362 0.4362 0.4354 0.4338 0.4323 0.4315 0.4307 0.4315 0.4315 0.4323 0.4338 0.4330 0.4323 0.4315 0.4307 0.4299 0.4291 0.4291 0.4299 0.4315 0.4330 0.4330 0.4323 0.4323 0.4323
0.4738 0.4730 0.4722 0.4722 0.4730 0.4730 0.4722 0.4706 0.4699 0.4699 0.4706 0.4714 0.4738 0.4753 0.4761 0.4769 0.4769 0.4761 0.4753 0.4745 0.4738 0.4722 0.4714 0.4699 0.4691 0.4675 0.4667 0.4644 0.4628 0.4620 0.4612 0.4605 0.4597 0.4589 0.4573 0.4573 0.4573 0.4550 0.4526 0.4503 0.4487 0.4479 0.4479 0.4471 0.4471 0.4471 0.4464 0.4456 0.4448 0.4456 0.4464 0.4464 0.4456 0.4456 0.4456 0.4456 0.4464 0.4464 0.4440 0.4424 0.4417 0.4417 0.4417 0.4417 0.4417 0.4417 0.4409 0.4409 0.4417 0.4417 0.4417 0.4409 0.4401 0.4401 0.4401 0.4409 0.4409 0.4417 0.4440 0.4471 0.4495 0.4503 0.4511 0.4526 0.4550 0.4581 0.4605 0.4628 0.4675 0.4722 0.4777 0.4808 0.4839 0.4886 0.4933 0.4957 0.4949 0.4926 0.4902 0.4871 0.4847 0.4816 0.4785 0.4769 0.4769 0.4785 0.4800 0.4839 0.4886 0.4926 0.4933 0.4949 0.4949 0.4941 0.4926 0.4902 0.4886 0.4879 0.4871 0.4863 0.4847 0.4816 0.4792 0.4761 0.4745 0.4738 0.4738 0.4730 0.4706 0.4683 0.4652 0.4628 0.4605 0.4597 0.4589 0.4581 0.4558 0.4534 0.4518 0.4511 0.4518 0.4558 0.4565 0.4573 0.4581 0.4589 0.4597 0.4612 0.4620 0.4612 0.4605 0.4597 0.4589 0.4565 0.4558 0.4558 0.4558 0.4573 0.4597 0.4636 0.4667 0.4675 0.4659 0.4652 0.4652 0.4659 0.4659 0.4628 0.4612 0.4597 0.4581 0.4558 0.4534 0.4518 0.4503 0.4479 0.4456 0.4432 0.4417 0.4424 0.4440 0.4456 0.4471 0.4487 0.4487 0.4487 0.4479 0.4503 0.4526 0.4565 0.4597 0.4620 0.4620 0.4612 0.4612 0.4597 0.4581 0.4565 0.4550 0.4542 0.4542 0.4526 0.4495 0.4479 0.4448 0.4432 0.4417 0.4409 0.4401 0.4393 0.4393 0.4385 0.4385 0.4370 0.4354 0.4354 0.4354 0.4354 0.4346 0.4338 0.4330 0.4323 0.4315 0.4299 0.4299 0.4315 0.4330 0.4330 0.4323 0.4323 0.4315 0.4315 0.4307 0.4291 0.4291 0.4299 0.4315 0.4315 0.4307 0.4299 0.4299
0.4745 0.4730 0.4730 0.4730 0.4730 0.4730 0.4722 0.4706 0.4699 0.4699 0.4699 0.4706 0.4722 0.4738 0.4753 0.4761 0.4761 0.4753 0.4753 0.4745 0.4738 0.4730 0.4714 0.4699 0.4691 0.4683 0.4675 0.4667 0.4659 0.4636 0.4620 0.4612 0.4605 0.4597 0.4581 0.4573 0.4565 0.4550 0.4511 0.4487 0.4479 0.4471 0.4471 0.4471 0.4471 0.4471 0.4471 0.4456 0.4456 0.4448 0.4456 0.4448 0.4448 0.4440 0.4440 0.4440 0.4448 0.4448 0.4440 0.4424 0.4417 0.4417 0.4417 0.4417 0.4409 0.4409 0.4409 0.4409 0.4409 0.4409 0.4409 0.4409 0.4401 0.4401 0.4409 0.4424 0.4424 0.4424 0.4432 0.4456 0.4471 0.4479 0.4495 0.4518 0.4558 0.4573 0.4589 0.4605 0.4644 0.4691 0.4730 0.4761 0.4785 0.4824 0.4871 0.4918 0.4918 0.4910 0.4879 0.4855 0.4832 0.4800 0.4777 0.4745 0.4738 0.4753 0.4800 0.4847 0.4886 0.4918 0.4926 0.4926 0.4918 0.4926 0.4910 0.4886 0.4863 0.4855 0.4855 0.4847 0.4847 0.4824 0.4800 0.4785 0.4777 0.4769 0.4753 0.4730 0.4699 0.4675 0.4667 0.4644 0.4620 0.4605 0.4597 0.4581 0.4565 0.4550 0.4518 0.4503 0.4511 0.4526 0.4542 0.4542 0.4542 0.4550 0.4565 0.4581 0.4589 0.4597 0.4589 0.4581 0.4573 0.4565 0.4565 0.4558 0.4565 0.4581 0.4597 0.4620 0.4644 0.4636 0.4620 0.4620 0.4636 0.4644 0.4636 0.4612 0.4597 0.4589 0.4581 0.4573 0.4550 0.4534 0.4511 0.4487 0.4464 0.4432 0.4417 0.4417 0.4424 0.4440 0.4471 0.4487 0.4487 0.4479 0.4471 0.4471 0.4487 0.4518 0.4550 0.4589 0.4597 0.4597 0.4597 0.4589 0.4573 0.4550 0.4534 0.4534 0.4526 0.4511 0.4495 0.4479 0.4456 0.4440 0.4432 0.4417 0.4401 0.4385 0.4370 0.4370 0.4362 0.4354 0.4354 0.4354 0.4354 0.4338 0.4338 0.4346 0.4346 0.4338 0.4323 0.4299 0.4291 0.4307 0.4315 0.4323 0.4323 0.4315 0.4323 0.4323 0.4307 0.4291 0.4283 0.4291 0.4291 0.4291 0.4291 0.4291 0.4291
0.4745 0.4738 0.4722 0.4722 0.4714 0.4714 0.4714 0.4699 0.4691 0.4683 0.4683 0.4691 0.4691 0.4714 0.4738 0.4745 0.4738 0.4745 0.4738 0.4730 0.4722 0.4706 0.4699 0.4683 0.4683 0.4683 0.4675 0.4667 0.4652 0.4636 0.4628 0.4612 0.4612 0.4605 0.4589 0.4565 0.4558 0.4534 0.4511 0.4487 0.4471 0.4464 0.4464 0.4464 0.4471 0.4471 0.4471 0.4464 0.4456 0.4448 0.4440 0.4432 0.4424 0.4424 0.4424 0.4432 0.4440 0.4432 0.4432 0.4424 0.4417 0.4417 0.4424 0.4417 0.4409 0.4401 0.4401 0.4409 0.4409 0.4417 0.4417 0.4417 0.4409 0.4409 0.4417 0.4424 0.4432 0.4424 0.4424 0.4440 0.4456 0.4456 0.4471 0.4518 0.4558 0.4581 0.4581 0.4597 0.4620 0.4644 0.4675 0.4706 0.4745 0.4785 0.4832 0.4855 0.4871 0.4871 0.4855 0.4839 0.4824 0.4792 0.4738 0.4699 0.4691 0.4730 0.4800 0.4847 0.4886 0.4910 0.4910 0.4902 0.4894 0.4886 0.4871 0.4855 0.4839 0.4832 0.4832 0.4839 0.4832 0.4816 0.4800 0.4792 0.4777 0.4761 0.4738 0.4706 0.4683 0.4675 0.4667 0.4652 0.4628 0.4612 0.4605 0.4589 0.4573 0.4558 0.4534 0.4511 0.4511 0.4511 0.4518 0.4511 0.4518 0.4526 0.4542 0.4558 0.4573 0.4565 0.4558 0.4565 0.4558 0.4550 0.4550 0.4542 0.4550 0.4558 0.4573 0.4597 0.4605 0.4605 0.4605 0.4605 0.4612 0.4628 0.4612 0.4597 0.4581 0.4573 0.4573 0.4573 0.4565 0.4542 0.4526 0.4487 0.4464 0.4432 0.4409 0.4401 0.4417 0.4440 0.4456 0.4471 0.4479 0.4479 0.4471 0.4464 0.4464 0.4471 0.4503 0.4542 0.4565 0.4581 0.4589 0.4573 0.4550 0.4534 0.4526 0.4518 0.4511 0.4503 0.4479 0.4464 0.4440 0.4432 0.4424 0.4417 0.4393 0.4377 0.4362 0.4354 0.4346 0.4354 0.4354 0.4354 0.4346 0.4330 0.4330 0.4330 0.4330 0.4323 0.4307 0.4291 0.4283 0.4291 0.4299 0.4299 0.4307 0.4307 0.4307 0.4307 0.4299 0.4291 0.4291 0.4291 0.4283 0.4283 0.4283 0.4291 0.4291
0.4745 0.4730 0.4722 0.4706 0.4699 0.4691 0.4699 0.4683 0.4667 0.4667 0.4659 0.4667 0.4683 0.4706 0.4714 0.4722 0.4722 0.4714 0.4706 0.4706 0.4691 0.4683 0.4675 0.4667 0.4667 0.4675 0.4667 0.4659 0.4644 0.4636 0.4620 0.4620 0.4612 0.4605 0.4589 0.4550 0.4526 0.4511 0.4495 0.4479 0.4471 0.4464 0.4464 0.4464 0.4471 0.4479 0.4479 0.4471 0.4464 0.4456 0.4448 0.4432 0.4424 0.4424 0.4417 0.4417 0.4424 0.4424 0.4424 0.4417 0.4409 0.4417 0.4417 0.4417 0.4409 0.4401 0.4409 0.4409 0.4424 0.4432 0.4432 0.4432 0.4432 0.4424 0.4424 0.4432 0.4432 0.4417 0.4417 0.4417 0.4424 0.4432 0.4432 0.4448 0.4518 0.4558 0.4565 0.4573 0.4597 0.4612 0.4636 0.4659 0.4706 0.4738 0.4769 0.4808 0.4816 0.4824 0.4832 0.4832 0.4792 0.4745 0.4706 0.4667 0.4675 0.4722 0.4769 0.4832 0.4871 0.4894 0.4894 0.4886 0.4871 0.4855 0.4847 0.4832 0.4824 0.4808 0.4808 0.4808 0.4800 0.4792 0.4792 0.4785 0.4769 0.4738 0.4722 0.4699 0.4691 0.4691 0.4683 0.4675 0.4659 0.4644 0.4628 0.4605 0.4589 0.4573 0.4558 0.4534 0.4518 0.4511 0.4503 0.4503 0.4511 0.4518 0.4534 0.4542 0.4550 0.4542 0.4542 0.4542 0.4542 0.4534 0.4526 0.4526 0.4526 0.4542 0.4558 0.4565 0.4573 0.4581 0.4581 0.4597 0.4605 0.4612 0.4612 0.4605 0.4597 0.4581 0.4573 0.4573 0.4565 0.4542 0.4511 0.4495 0.4471 0.4456 0.4424 0.4409 0.4417 0.4432 0.4448 0.4456 0.4464 0.4464 0.4464 0.4464 0.4456 0.4456 0.4464 0.4495 0.4526 0.4550 0.4550 0.4542 0.4534 0.4526 0.4511 0.4495 0.4487 0.4479 0.4464 0.4440 0.4424 0.4417 0.4409 0.4409 0.4393 0.4377 0.4362 0.4354 0.4346 0.4354 0.4362 0.4362 0.4354 0.4338 0.4330 0.4330 0.4323 0.4299 0.4291 0.4283 0.4283 0.4283 0.4276 0.4283 0.4291 0.4291 0.4291 0.4291 0.4291 0.4291 0.4291 0.4283 0.4283 0.4291 0.4291 0.4291 0.4291
0.4722 0.4714 0.4699 0.4691 0.4675 0.4675 0.4675 0.4667 0.4659 0.4652 0.4652 0.4659 0.4683 0.4691 0.4699 0.4699 0.4691 0.4683 0.4683 0.4675 0.4667 0.4667 0.4659 0.4652 0.4652 0.4652 0.4652 0.4652 0.4636 0.4612 0.4605 0.4605 0.4589 0.4581 0.4565 0.4534 0.4511 0.4495 0.4479 0.4471 0.4464 0.4464 0.4464 0.4464 0.4464 0.4471 0.4479 0.4471 0.4464 0.4464 0.4456 0.4440 0.4432 0.4424 0.4417 0.4417 0.4417 0.4417 0.4409 0.4409 0.4417 0.4424 0.4432 0.4432 0.4424 0.4424 0.4424 0.4432 0.4432 0.4440 0.4440 0.4432 0.4432 0.4424 0.4424 0.4432 0.4432 0.4432 0.4409 0.4417 0.4424 0.4424 0.4424 0.4432 0.4464 0.4495 0.4534 0.4542 0.4550 0.4573 0.4597 0.4620 0.4644 0.4691 0.4738 0.4753 0.4785 0.4800 0.4808 0.4792 0.4753 0.4722 0.4683 0.4652 0.4667 0.4706 0.4777 0.4816 0.4847 0.4871 0.4886 0.4886 0.4863 0.4847 0.4832 0.4816 0.4800 0.4785 0.4785 0.4785 0.4777 0.4769 0.4761 0.4761 0.4745 0.4730 0.4706 0.4691 0.4691 0.4691 0.4691 0.4683 0.4675 0.4667 0.4644 0.4620 0.4605 0.4589 0.4573 0.4558 0.4542 0.4511 0.4495 0.4495 0.4495 0.4495 0.4503 0.4511 0.4518 0.4511 0.4518 0.4518 0.4526 0.4518 0.4511 0.4503 0.4503 0.4518 0.4534 0.4542 0.4542 0.4550 0.4565 0.4589 0.4612 0.4644 0.4644 0.4636 0.4628 0.4628 0.4612 0.4589 0.4573 0.4550 0.4526 0.4503 0.4487 0.4471 0.4456 0.4432 0.4424 0.4440 0.4448 0.4448 0.4456 0.4456 0.4456 0.4456 0.4448 0.4448 0.4440 0.4456 0.4479 0.4495 0.4518 0.4526 0.4526 0.4518 0.4503 0.4487 0.4471 0.4456 0.4432 0.4417 0.4409 0.4409 0.4409 0.4409 0.4401 0.4377 0.4362 0.4346 0.4338 0.4346 0.4354 0.4362 0.4362 0.4346 0.4338 0.4330 0.4315 0.4299 0.4291 0.4291 0.4291 0.4283 0.4283 0.4283 0.4276 0.4283 0.4283 0.4283 0.4291 0.4291 0.4276 0.4276 0.4283 0.4299 0.4299 0.4299 0.4299
0.4691 0.4691 0.4683 0.4667 0.4659 0.4659 0.4659 0.4659 0.4659 0.4652 0.4652 0.4652 0.4659 0.4667 0.4675 0.4675 0.4659 0.4652 0.4659 0.4659 0.4659 0.4659 0.4659 0.4644 0.4636 0.4636 0.4636 0.4636 0.4620 0.4605 0.4597 0.4589 0.4573 0.4558 0.4534 0.4511 0.4495 0.4487 0.4479 0.4471 0.4471 0.4471 0.4471 0.4456 0.4456 0.4456 0.4456 0.4456 0.4456 0.4456 0.4448 0.4448 0.4440 0.4424 0.4424 0.4424 0.4424 0.4417 0.4417 0.4409 0.4424 0.4440 0.4448 0.4448 0.4448 0.4448 0.4440 0.4440 0.4448 0.4448 0.4448 0.4448 0.4432 0.4417 0.4409 0.4401 0.4401 0.4401 0.4401 0.4417 0.4432 0.4432 0.4424 0.4432 0.4448 0.4479 0.4495 0.4511 0.4526 0.4550 0.4573 0.4589 0.4612 0.4636 0.4667 0.4699 0.4730 0.4745 0.4761 0.4761 0.4738 0.4699 0.4659 0.4644 0.4659 0.4691 0.4769 0.4824 0.4839 0.4863 0.4886 0.4886 0.4879 0.4871 0.4839 0.4808 0.4785 0.4769 0.4761 0.4761 0.4753 0.4738 0.4730 0.4730 0.4730 0.4714 0.4691 0.4683 0.4675 0.4667 0.4667 0.4667 0.4675 0.4667 0.4652 0.4628 0.4612 0.4589 0.4581 0.4565 0.4542 0.4518 0.4503 0.4495 0.4495 0.4487 0.4487 0.4487 0.4479 0.4479 0.4487 0.4503 0.4511 0.4518 0.4511 0.4503 0.4495 0.4503 0.4518 0.4526 0.4534 0.4542 0.4558 0.4589 0.4620 0.4659 0.4667 0.4667 0.4659 0.4659 0.4644 0.4620 0.4589 0.4573 0.4534 0.4495 0.4464 0.4456 0.4448 0.4440 0.4432 0.4440 0.4448 0.4456 0.4456 0.4456 0.4448 0.4440 0.4440 0.4424 0.4424 0.4417 0.4424 0.4440 0.4464 0.4487 0.4511 0.4503 0.4495 0.4479 0.4471 0.4448 0.4424 0.4417 0.4417 0.4409 0.4409 0.4409 0.4393 0.4362 0.4346 0.4330 0.4330 0.4338 0.4346 0.4354 0.4346 0.4338 0.4330 0.4323 0.4323 0.4307 0.4307 0.4299 0.4291 0.4283 0.4276 0.4268 0.4268 0.4276 0.4283 0.4283 0.4283 0.4276 0.4268 0.4268 0.4283 0.4291 0.4291 0.4291 0.4291
0.4667 0.4667 0.4659 0.4659 0.4652 0.4652 0.4652 0.4659 0.4652 0.4652 0.4644 0.4644 0.4644 0.4652 0.4659 0.4659 0.4652 0.4652 0.4652 0.4652 0.4652 0.4652 0.4652 0.4644 0.4628 0.4620 0.4620 0.4612 0.4605 0.4605 0.4597 0.4589 0.4573 0.4550 0.4518 0.4487 0.4479 0.4479 0.4479 0.4471 0.4479 0.4479 0.4471 0.4456 0.4448 0.4448 0.4448 0.4448 0.4456 0.4456 0.4448 0.4448 0.4448 0.4448 0.4440 0.4440 0.4440 0.4440 0.4432 0.4432 0.4440 0.4448 0.4448 0.4456 0.4456 0.4456 0.4464 0.4464 0.4471 0.4471 0.4471 0.4464 0.4456 0.4440 0.4417 0.4401 0.4370 0.4377 0.4393 0.4417 0.4432 0.4432 0.4409 0.4424 0.4448 0.4456 0.4464 0.4487 0.4518 0.4542 0.4550 0.4558 0.4573 0.4597 0.4612 0.4620 0.4659 0.4691 0.4722 0.4738 0.4722 0.4691 0.4652 0.4636 0.4644 0.4691 0.4761 0.4816 0.4832 0.4855 0.4879 0.4886 0.4886 0.4879 0.4847 0.4816 0.4785 0.4769 0.4753 0.4738 0.4722 0.4699 0.4699 0.4706 0.4706 0.4691 0.4683 0.4667 0.4659 0.4644 0.4652 0.4652 0.4659 0.4652 0.4644 0.4636 0.4612 0.4589 0.4573 0.4558 0.4542 0.4518 0.4511 0.4503 0.4503 0.4495 0.4487 0.4479 0.4471 0.4464 0.4479 0.4495 0.4511 0.4511 0.4511 0.4511 0.4503 0.4503 0.4511 0.4518 0.4526 0.4542 0.4565 0.4589 0.4620 0.4644 0.4652 0.4652 0.4659 0.4652 0.4644 0.4628 0.4605 0.4581 0.4542 0.4487 0.4456 0.4440 0.4432 0.4417 0.4409 0.4401 0.4424 0.4440 0.4456 0.4448 0.4440 0.4432 0.4424 0.4417 0.4409 0.4401 0.4393 0.4393 0.4417 0.4448 0.4464 0.4464 0.4464 0.4464 0.4456 0.4432 0.4424 0.4424 0.4417 0.4401 0.4385 0.4377 0.4362 0.4354 0.4338 0.4338 0.4330 0.4330 0.4330 0.4330 0.4323 0.4315 0.4315 0.4315 0.4307 0.4307 0.4299 0.4283 0.4276 0.4268 0.4260 0.4260 0.4260 0.4283 0.4291 0.4291 0.4283 0.4268 0.4260 0.4260 0.4268 0.4268 0.4276 0.4268 0.4268
0.4659 0.4652 0.4652 0.4652 0.4652 0.4652 0.4652 0.4652 0.4644 0.4644 0.4636 0.4636 0.4636 0.4636 0.4636 0.4644 0.4636 0.4636 0.4636 0.4636 0.4636 0.4636 0.4636 0.4628 0.4612 0.4605 0.4597 0.4589 0.4589 0.4589 0.4597 0.4589 0.4573 0.4542 0.4503 0.4487 0.4487 0.4487 0.4487 0.4479 0.4487 0.4487 0.4487 0.4479 0.4471 0.4456 0.4456 0.4448 0.4448 0.4456 0.4456 0.4456 0.4464 0.4464 0.4464 0.4471 0.4471 0.4471 0.4464 0.4448 0.4456 0.4456 0.4456 0.4456 0.4456 0.4464 0.4464 0.4471 0.4479 0.4479 0.4479 0.4479 0.4479 0.4456 0.4432 0.4432 0.4417 0.4385 0.4385 0.4401 0.4417 0.4401 0.4393 0.4401 0.4432 0.4464 0.4471 0.4479 0.4503 0.4518 0.4518 0.4526 0.4534 0.4558 0.4581 0.4605 0.4620 0.4644 0.4667 0.4683 0.4691 0.4659 0.4636 0.4636 0.4652 0.4699 0.4761 0.4808 0.4839 0.4847 0.4863 0.4879 0.4879 0.4879 0.4855 0.4816 0.4792 0.4769 0.4745 0.4730 0.4714 0.4699 0.4683 0.4683 0.4675 0.4667 0.4659 0.4652 0.4644 0.4636 0.4636 0.4644 0.4644 0.4652 0.4644 0.4628 0.4612 0.4589 0.4565 0.4550 0.4542 0.4526 0.4526 0.4542 0.4542 0.4526 0.4511 0.4487 0.4471 0.4456 0.4464 0.4487 0.4495 0.4511 0.4511 0.4511 0.4511 0.4495 0.4495 0.4503 0.4511 0.4534 0.4558 0.4581 0.4605 0.4620 0.4628 0.4620 0.4628 0.4628 0.4628 0.4620 0.4597 0.4565 0.4526 0.4487 0.4448 0.4424 0.4401 0.4377 0.4362 0.4362 0.4377 0.4417 0.4440 0.4440 0.4440 0.4432 0.4424 0.4417 0.4409 0.4393 0.4385 0.4385 0.4401 0.4424 0.4432 0.4440 0.4440 0.4440 0.4424 0.4417 0.4409 0.4409 0.4393 0.4377 0.4362 0.4354 0.4346 0.4346 0.4346 0.4338 0.4338 0.4338 0.4323 0.4315 0.4307 0.4299 0.4307 0.4307 0.4307 0.4299 0.4283 0.4268 0.4260 0.4260 0.4252 0.4252 0.4268 0.4276 0.4291 0.4283 0.4268 0.4268 0.4260 0.4252 0.4244 0.4244 0.4244 0.4252 0.4252
0.4659 0.4652 0.4644 0.4636 0.4636 0.4636 0.4636 0.4636 0.4644 0.4636 0.4636 0.4636 0.4628 0.4628 0.4620 0.4620 0.4628 0.4636 0.4636 0.4628 0.4628 0.4620 0.4620 0.4612 0.4597 0.4589 0.4573 0.4573 0.4573 0.4573 0.4573 0.4573 0.4558 0.4534 0.4511 0.4495 0.4495 0.4495 0.4503 0.4503 0.4495 0.4495 0.4495 0.4495 0.4487 0.4471 0.4456 0.4456 0.4456 0.4456 0.4456 0.4456 0.4464 0.4471 0.4479 0.4487 0.4487 0.4487 0.4471 0.4471 0.4471 0.4464 0.4448 0.4448 0.4448 0.4456 0.4456 0.4464 0.4479 0.4487 0.4487 0.4487 0.4479 0.4464 0.4456 0.4456 0.4456 0.4432 0.4401 0.4362 0.4377 0.4393 0.4401 0.4417 0.4440 0.4456 0.4464 0.4471 0.4479 0.4487 0.4495 0.4487 0.4511 0.4534 0.4565 0.4589 0.4597 0.4605 0.4620 0.4636 0.4636 0.4628 0.4620 0.4644 0.4675 0.4730 0.4792 0.4824 0.4839 0.4855 0.4871 0.4871 0.4871 0.4855 0.4832 0.4808 0.4785 0.4769 0.4753 0.4738 0.4714 0.4699 0.4683 0.4667 0.4659 0.4652 0.4636 0.4628 0.4628 0.4620 0.4628 0.4636 0.4644 0.4652 0.4636 0.4628 0.4612 0.4589 0.4565 0.4558 0.4558 0.4565 0.4573 0.4581 0.4581 0.4573 0.4542 0.4518 0.4471 0.4456 0.4471 0.4479 0.4495 0.4487 0.4495 0.4503 0.4503 0.4495 0.4471 0.4471 0.4487 0.4511 0.4542 0.4565 0.4581 0.4597 0.4605 0.4605 0.4605 0.4605 0.4612 0.4605 0.4581 0.4550 0.4518 0.4495 0.4464 0.4409 0.4377 0.4362 0.4354 0.4346 0.4370 0.4401 0.4432 0.4424 0.4417 0.4409 0.4424 0.4409 0.4393 0.4377 0.4377 0.4385 0.4393 0.4401 0.4409 0.4417 0.4417 0.4409 0.4409 0.4401 0.4401 0.4393 0.4385 0.4370 0.4354 0.4346 0.4346 0.4346 0.4346 0.4338 0.4338 0.4330 0.4323 0.4307 0.4291 0.4283 0.4299 0.4307 0.4315 0.4307 0.4291 0.4283 0.4260 0.4244 0.4236 0.4236 0.4252 0.4260 0.4268 0.4268 0.4268 0.4268 0.4260 0.4252 0.4236 0.4229 0.4236 0.4244 0.4244
0.4652 0.4644 0.4636 0.4628 0.4628 0.4636 0.4636 0.4636 0.4628 0.4620 0.4620 0.4620 0.4620 0.4612 0.4612 0.4605 0.4612 0.4620 0.4620 0.4628 0.4628 0.4612 0.4597 0.4589 0.4581 0.4558 0.4558 0.4565 0.4565 0.4565 0.4558 0.4558 0.4542 0.4526 0.4503 0.4495 0.4495 0.4503 0.4511 0.4511 0.4503 0.4495 0.4495 0.4495 0.4487 0.4471 0.4471 0.4464 0.4464 0.4464 0.4464 0.4464 0.4471 0.4471 0.4479 0.4487 0.4479 0.4479 0.4479 0.4479 0.4479 0.4479 0.4471 0.4456 0.4464 0.4471 0.4464 0.4471 0.4503 0.4518 0.4511 0.4495 0.4495 0.4487 0.4479 0.4464 0.4456 0.4440 0.4417 0.4401 0.4401 0.4401 0.4409 0.4424 0.4432 0.4432 0.4440 0.4448 0.4464 0.4479 0.4479 0.4471 0.4479 0.4511 0.4542 0.4565 0.4573 0.4589 0.4597 0.4605 0.4605 0.4605 0.4620 0.4652 0.4699 0.4761 0.4800 0.4832 0.4855 0.4871 0.4879 0.4871 0.4847 0.4832 0.4816 0.4800 0.4785 0.4769 0.4761 0.4745 0.4722 0.4691 0.4675 0.4659 0.4652 0.4644 0.4636 0.4612 0.4605 0.4605 0.4612 0.4628 0.4652 0.4659 0.4652 0.4636 0.4628 0.4612 0.4589 0.4581 0.4573 0.4581 0.4589 0.4597 0.4597 0.4589 0.4573 0.4526 0.4487 0.4464 0.4471 0.4471 0.4479 0.4471 0.4471 0.4479 0.4487 0.4479 0.4456 0.4456 0.4471 0.4495 0.4526 0.4542 0.4558 0.4573 0.4589 0.4581 0.4573 0.4581 0.4573 0.4565 0.4550 0.4534 0.4503 0.4479 0.4448 0.4417 0.4385 0.4370 0.4354 0.4346 0.4362 0.4393 0.4409 0.4393 0.4370 0.4377 0.4377 0.4377 0.4377 0.4362 0.4354 0.4362 0.4362 0.4362 0.4377 0.4385 0.4393 0.4401 0.4409 0.4401 0.4393 0.4393 0.4377 0.4377 0.4362 0.4354 0.4346 0.4346 0.4346 0.4338 0.4330 0.4330 0.4315 0.4307 0.4291 0.4291 0.4299 0.4315 0.4315 0.4307 0.4299 0.4291 0.4276 0.4236 0.4229 0.4229 0.4244 0.4252 0.4260 0.4260 0.4268 0.4268 0.4268 0.4260 0.4244 0.4236 0.4229 0.4229 0.4229
0.4636 0.4636 0.4628 0.4620 0.4628 0.4636 0.4636 0.4620 0.4612 0.4605 0.4605 0.4597 0.4597 0.4597 0.4589 0.4589 0.4589 0.4589 0.4597 0.4605 0.4597 0.4589 0.4573 0.4565 0.4558 0.4550 0.4542 0.4550 0.4550 0.4550 0.4542 0.4542 0.4534 0.4511 0.4503 0.4495 0.4495 0.4503 0.4511 0.4511 0.4511 0.4503 0.4495 0.4495 0.4495 0.4487 0.4487 0.4479 0.4479 0.4479 0.4479 0.4479 0.4479 0.4479 0.4487 0.4495 0.4487 0.4479 0.4487 0.4487 0.4495 0.4511 0.4495 0.4495 0.4511 0.4518 0.4511 0.4511 0.4534 0.4542 0.4542 0.4534 0.4534 0.4526 0.4511 0.4487 0.4464 0.4456 0.4456 0.4440 0.4424 0.4409 0.4385 0.4393 0.4409 0.4417 0.4424 0.4432 0.4440 0.4448 0.4456 0.4448 0.4456 0.4479 0.4518 0.4542 0.4558 0.4565 0.4573 0.4573 0.4581 0.4605 0.4636 0.4683 0.4738 0.4777 0.4808 0.4847 0.4863 0.4879 0.4879 0.4871 0.4839 0.4824 0.4816 0.4800 0.4769 0.4769 0.4761 0.4745 0.4722 0.4699 0.4675 0.4659 0.4644 0.4636 0.4620 0.4612 0.4597 0.4597 0.4597 0.4620 0.4652 0.4667 0.4659 0.4652 0.4652 0.4636 0.4636 0.4612 0.4597 0.4597 0.4605 0.4612 0.4597 0.4589 0.4565 0.4534 0.4495 0.4487 0.4471 0.4471 0.4464 0.4448 0.4448 0.4448 0.4448 0.4448 0.4440 0.4448 0.4456 0.4479 0.4511 0.4534 0.4542 0.4558 0.4573 0.4565 0.4550 0.4542 0.4534 0.4526 0.4526 0.4511 0.4487 0.4456 0.4424 0.4401 0.4385 0.4362 0.4346 0.4338 0.4338 0.4370 0.4370 0.4354 0.4338 0.4338 0.4338 0.4338 0.4346 0.4338 0.4330 0.4323 0.4323 0.4338 0.4354 0.4370 0.4377 0.4393 0.4393 0.4385 0.4385 0.4385 0.4385 0.4385 0.4377 0.4362 0.4354 0.4346 0.4346 0.4338 0.4330 0.4323 0.4323 0.4315 0.4307 0.4307 0.4307 0.4315 0.4315 0.4307 0.4299 0.4283 0.4268 0.4252 0.4236 0.4236 0.4236 0.4244 0.4252 0.4260 0.4268 0.4268 0.4260 0.4252 0.4244 0.4236 0.4229 0.4213 0.4213
0.4612 0.4612 0.4612 0.4620 0.4620 0.4612 0.4612 0.4597 0.4597 0.4589 0.4589 0.4589 0.4581 0.4581 0.4581 0.4581 0.4573 0.4573 0.4581 0.4589 0.4581 0.4573 0.4558 0.4550 0.4542 0.4534 0.4534 0.4534 0.4534 0.4526 0.4526 0.4526 0.4526 0.4511 0.4495 0.4495 0.4495 0.4503 0.4511 0.4511 0.4511 0.4503 0.4495 0.4495 0.4495 0.4503 0.4503 0.4495 0.4487 0.4503 0.4511 0.4511 0.4511 0.4503 0.4511 0.4526 0.4518 0.4511 0.4511 0.4518 0.4526 0.4542 0.4542 0.4542 0.4558 0.4565 0.4573 0.4565 0.4558 0.4558 0.4558 0.4550 0.4550 0.4542 0.4534 0.4511 0.4487 0.4479 0.4464 0.4448 0.4424 0.4401 0.4377 0.4377 0.4385 0.4393 0.4401 0.4409 0.4401 0.4409 0.4417 0.4424 0.4432 0.4448 0.4479 0.4511 0.4526 0.4534 0.4542 0.4550 0.4565 0.4605 0.4659 0.4699 0.4745 0.4785 0.4808 0.4832 0.4863 0.4879 0.4879 0.4871 0.4839 0.4824 0.4816 0.4792 0.4769 0.4761 0.4745 0.4730 0.4722 0.4699 0.4683 0.4659 0.4628 0.4612 0.4597 0.4597 0.4597 0.4589 0.4589 0.4620 0.4659 0.4675 0.4675 0.4659 0.4652 0.4652 0.4652 0.4636 0.4628 0.4628 0.4636 0.4636 0.4612 0.4589 0.4565 0.4542 0.4526 0.4511 0.4495 0.4471 0.4456 0.4440 0.4440 0.4440 0.4440 0.4432 0.4432 0.4432 0.4448 0.4471 0.4503 0.4518 0.4526 0.4534 0.4542 0.4534 0.4526 0.4518 0.4503 0.4503 0.4487 0.4471 0.4456 0.4424 0.4401 0.4377 0.4370 0.4346 0.4338 0.4330 0.4330 0.4338 0.4346 0.4330 0.4323 0.4307 0.4307 0.4307 0.4307 0.4307 0.4307 0.4307 0.4315 0.4330 0.4354 0.4377 0.4385 0.4385 0.4370 0.4362 0.4362 0.4370 0.4377 0.4377 0.4385 0.4370 0.4362 0.4338 0.4330 0.4323 0.4315 0.4315 0.4323 0.4315 0.4315 0.4307 0.4315 0.4307 0.4299 0.4291 0.4276 0.4268 0.4260 0.4244 0.4244 0.4229 0.4229 0.4229 0.4236 0.4252 0.4260 0.4260 0.4260 0.4252 0.4244 0.4236 0.4221 0.4213 0.4213
0.4597 0.4597 0.4597 0.4597 0.4605 0.4597 0.4581 0.4573 0.4581 0.4581 0.4581 0.4581 0.4573 0.4581 0.4581 0.4581 0.4581 0.4581 0.4581 0.4573 0.4573 0.4565 0.4558 0.4542 0.4534 0.4526 0.4526 0.4526 0.4526 0.4518 0.4518 0.4526 0.4518 0.4503 0.4495 0.4487 0.4495 0.4511 0.4511 0.4518 0.4511 0.4511 0.4503 0.4495 0.4503 0.4518 0.4518 0.4511 0.4511 0.4526 0.4550 0.4550 0.4550 0.4542 0.4542 0.4550 0.4558 0.4550 0.4558 0.4558 0.4565 0.4573 0.4573 0.4581 0.4589 0.4597 0.4605 0.4597 0.4581 0.4581 0.4573 0.4565 0.4558 0.4550 0.4534 0.4518 0.4511 0.4503 0.4495 0.4471 0.4432 0.4393 0.4377 0.4370 0.4362 0.4362 0.4362 0.4362 0.4377 0.4393 0.4393 0.4401 0.4409 0.4417 0.4440 0.4471 0.4487 0.4503 0.4511 0.4526 0.4558 0.4597 0.4636 0.4683 0.4730 0.4769 0.4800 0.4816 0.4839 0.4863 0.4863 0.4855 0.4839 0.4824 0.4816 0.4800 0.4777 0.4753 0.4738 0.4722 0.4714 0.4706 0.4691 0.4667 0.4636 0.4612 0.4597 0.4589 0.4573 0.4573 0.4581 0.4612 0.4652 0.4683 0.4683 0.4675 0.4667 0.4675 0.4675 0.4683 0.4667 0.4667 0.4667 0.4652 0.4628 0.4597 0.4573 0.4565 0.4550 0.4534 0.4511 0.4487 0.4464 0.4456 0.4440 0.4440 0.4432 0.4432 0.4432 0.4432 0.4432 0.4456 0.4479 0.4495 0.4495 0.4495 0.4503 0.4503 0.4503 0.4495 0.4487 0.4479 0.4456 0.4432 0.4409 0.4393 0.4370 0.4362 0.4346 0.4338 0.4338 0.4338 0.4338 0.4354 0.4362 0.4354 0.4323 0.4299 0.4291 0.4291 0.4291 0.4291 0.4299 0.4299 0.4315 0.4346 0.4377 0.4393 0.4393 0.4377 0.4354 0.4338 0.4346 0.4354 0.4362 0.4370 0.4377 0.4385 0.4362 0.4346 0.4330 0.4315 0.4307 0.4315 0.4323 0.4323 0.4307 0.4307 0.4307 0.4291 0.4283 0.4283 0.4276 0.4260 0.4244 0.4236 0.4236 0.4229 0.4213 0.4221 0.4229 0.4244 0.4260 0.4260 0.4252 0.4244 0.4244 0.4229 0.4221 0.4213 0.4213
0.4597 0.4589 0.4581 0.4589 0.4589 0.4589 0.4581 0.4573 0.4581 0.4573 0.4573 0.4573 0.4573 0.4581 0.4581 0.4581 0.4581 0.4581 0.4581 0.4573 0.4565 0.4558 0.4550 0.4534 0.4534 0.4526 0.4526 0.4526 0.4518 0.4518 0.4518 0.4518 0.4518 0.4503 0.4495 0.4487 0.4503 0.4511 0.4518 0.4518 0.4518 0.4518 0.4518 0.4518 0.4526 0.4542 0.4534 0.4526 0.4534 0.4550 0.4573 0.4573 0.4581 0.4581 0.4581 0.4573 0.4573 0.4589 0.4597 0.4597 0.4597 0.4605 0.4612 0.4612 0.4612 0.4620 0.4620 0.4620 0.4612 0.4597 0.4589 0.4581 0.4565 0.4558 0.4542 0.4526 0.4518 0.4518 0.4495 0.4471 0.4432 0.4401 0.4377 0.4354 0.4346 0.4346 0.4338 0.4346 0.4370 0.4377 0.4377 0.4393 0.4385 0.4385 0.4393 0.4424 0.4456 0.4471 0.4487 0.4503 0.4518 0.4565 0.4620 0.4667 0.4714 0.4761 0.4785 0.4800 0.4824 0.4847 0.4847 0.4847 0.4839 0.4824 0.4808 0.4792 0.4769 0.4745 0.4730 0.4722 0.4714 0.4706 0.4683 0.4667 0.4644 0.4620 0.4597 0.4581 0.4565 0.4550 0.4558 0.4597 0.4636 0.4667 0.4675 0.4683 0.4691 0.4699 0.4699 0.4706 0.4691 0.4691 0.4691 0.4667 0.4636 0.4605 0.4581 0.4565 0.4558 0.4542 0.4526 0.4511 0.4503 0.4487 0.4464 0.4448 0.4432 0.4424 0.4424 0.4424 0.4432 0.4440 0.4456 0.4471 0.4471 0.4471 0.4464 0.4464 0.4479 0.4479 0.4464 0.4448 0.4424 0.4393 0.4377 0.4362 0.4354 0.4346 0.4330 0.4323 0.4338 0.4362 0.4370 0.4401 0.4409 0.4417 0.4377 0.4354 0.4315 0.4307 0.4299 0.4299 0.4299 0.4307 0.4323 0.4346 0.4370 0.4385 0.4385 0.4370 0.4362 0.4354 0.4354 0.4362 0.4370 0.4370 0.4370 0.4362 0.4362 0.4346 0.4330 0.4315 0.4315 0.4315 0.4323 0.4323 0.4315 0.4307 0.4299 0.4291 0.4283 0.4283 0.4276 0.4260 0.4244 0.4236 0.4229 0.4229 0.4221 0.4221 0.4236 0.4244 0.4252 0.4244 0.4244 0.4236 0.4221 0.4221 0.4221 0.4213 0.4213
0.4589 0.4589 0.4581 0.4589 0.4589 0.4597 0.4597 0.4589 0.4581 0.4573 0.4565 0.4565 0.4565 0.4565 0.4573 0.4573 0.4565 0.4565 0.4565 0.4565 0.4558 0.4550 0.4542 0.4534 0.4534 0.4526 0.4526 0.4518 0.4511 0.4511 0.4518 0.4518 0.4511 0.4503 0.4503 0.4503 0.4503 0.4518 0.4526 0.4526 0.4518 0.4534 0.4558 0.4550 0.4558 0.4565 0.4573 0.4565 0.4565 0.4589 0.4597 0.4597 0.4597 0.4597 0.4589 0.4589 0.4597 0.4620 0.4620 0.4612 0.4612 0.4612 0.4628 0.4636 0.4636 0.4636 0.4644 0.4644 0.4628 0.4612 0.4597 0.4581 0.4573 0.4558 0.4550 0.4534 0.4518 0.4511 0.4495 0.4464 0.4424 0.4385 0.4362 0.4346 0.4346 0.4338 0.4330 0.4338 0.4346 0.4354 0.4362 0.4354 0.4354 0.4354 0.4370 0.4385 0.4401 0.4432 0.4456 0.4471 0.4503 0.4550 0.4597 0.4652 0.4699 0.4745 0.4777 0.4792 0.4816 0.4839 0.4847 0.4847 0.4832 0.4808 0.4800 0.4792 0.4777 0.4761 0.4745 0.4730 0.4714 0.4706 0.4691 0.4659 0.4636 0.4612 0.4597 0.4573 0.4558 0.4550 0.4558 0.4581 0.4612 0.4644 0.4667 0.4675 0.4691 0.4699 0.4706 0.4699 0.4691 0.4691 0.4683 0.4675 0.4652 0.4612 0.4597 0.4581 0.4558 0.4542 0.4534 0.4534 0.4550 0.4526 0.4511 0.4487 0.4456 0.4440 0.4424 0.4424 0.4432 0.4432 0.4440 0.4448 0.4448 0.4440 0.4432 0.4432 0.4440 0.4440 0.4424 0.4409 0.4393 0.4370 0.4354 0.4338 0.4346 0.4354 0.4346 0.4346 0.4370 0.4393 0.4432 0.4464 0.4495 0.4479 0.4456 0.4417 0.4393 0.4338 0.4315 0.4299 0.4299 0.4307 0.4315 0.4330 0.4346 0.4354 0.4354 0.4362 0.4362 0.4362 0.4370 0.4377 0.4377 0.4370 0.4370 0.4362 0.4354 0.4338 0.4330 0.4323 0.4323 0.4323 0.4315 0.4315 0.4315 0.4307 0.4299 0.4283 0.4291 0.4283 0.4283 0.4268 0.4252 0.4244 0.4236 0.4229 0.4221 0.4221 0.4229 0.4229 0.4229 0.4221 0.4221 0.4221 0.4221 0.4213 0.4221 0.4221 0.4221
0.4581 0.4589 0.4597 0.4605 0.4620 0.4612 0.4605 0.4612 0.4597 0.4581 0.4573 0.4565 0.4558 0.4558 0.4558 0.4558 0.4558 0.4558 0.4550 0.4550 0.4550 0.4542 0.4534 0.4526 0.4534 0.4534 0.4526 0.4518 0.4518 0.4518 0.4511 0.4511 0.4511 0.4518 0.4526 0.4526 0.4534 0.4550 0.4542 0.4526 0.4542 0.4565 0.4581 0.4589 0.4589 0.4597 0.4597 0.4597 0.4605 0.4620 0.4628 0.4620 0.4612 0.4612 0.4620 0.4620 0.4636 0.4644 0.4636 0.4628 0.4620 0.4620 0.4636 0.4644 0.4644 0.4644 0.4652 0.4659 0.4652 0.4628 0.4605 0.4589 0.4589 0.4581 0.4558 0.4542 0.4526 0.4511 0.4495 0.4464 0.4432 0.4401 0.4370 0.4354 0.4346 0.4338 0.4330 0.4330 0.4330 0.4330 0.4323 0.4323 0.4323 0.4338 0.4346 0.4362 0.4370 0.4377 0.4401 0.4432 0.4464 0.4495 0.4550 0.4620 0.4667 0.4722 0.4761 0.4792 0.4808 0.4832 0.4839 0.4847 0.4832 0.4816 0.4800 0.4785 0.4777 0.4769 0.4753 0.4738 0.4722 0.4714 0.4683 0.4652 0.4612 0.4597 0.4581 0.4558 0.4550 0.4542 0.4542 0.4565 0.4605 0.4628 0.4636 0.4652 0.4675 0.4691 0.4691 0.4683 0.4683 0.4683 0.4683 0.4675 0.4659 0.4628 0.4612 0.4605 0.4573 0.4565 0.4565 0.4558 0.4550 0.4542 0.4542 0.4526 0.4487 0.4440 0.4432 0.4417 0.4424 0.4424 0.4417 0.4424 0.4417 0.4409 0.4401 0.4409 0.4417 0.4409 0.4393 0.4377 0.4362 0.4354 0.4346 0.4346 0.4354 0.4370 0.4377 0.4393 0.4424 0.4456 0.4487 0.4534 0.4534 0.4518 0.4487 0.4456 0.4424 0.4370 0.4330 0.4307 0.4299 0.4299 0.4299 0.4315 0.4323 0.4330 0.4338 0.4346 0.4346 0.4354 0.4362 0.4370 0.4370 0.4370 0.4362 0.4354 0.4354 0.4338 0.4330 0.4323 0.4323 0.4315 0.4307 0.4299 0.4307 0.4291 0.4283 0.4276 0.4276 0.4291 0.4291 0.4276 0.4268 0.4252 0.4236 0.4229 0.4229 0.4221 0.4221 0.4221 0.4213 0.4213 0.4213 0.4213 0.4213 0.4213 0.4205 0.4213 0.4213
0.4628 0.4636 0.4652 0.4659 0.4659 0.4644 0.4628 0.4612 0.4605 0.4589 0.4581 0.4581 0.4565 0.4550 0.4542 0.4542 0.4550 0.4550 0.4558 0.4558 0.4550 0.4542 0.4534 0.4534 0.4534 0.4534 0.4542 0.4534 0.4526 0.4526 0.4518 0.4518 0.4526 0.4550 0.4558 0.4565 0.4565 0.4573 0.4573 0.4581 0.4589 0.4605 0.4612 0.4612 0.4620 0.4628 0.4620 0.4620 0.4644 0.4659 0.4659 0.4652 0.4652 0.4659 0.4659 0.4659 0.4659 0.4652 0.4644 0.4652 0.4644 0.4644 0.4644 0.4659 0.4659 0.4659 0.4667 0.4675 0.4667 0.4644 0.4620 0.4612 0.4605 0.4589 0.4573 0.4550 0.4542 0.4526 0.4503 0.4479 0.4456 0.4448 0.4440 0.4417 0.4393 0.4377 0.4362 0.4354 0.4346 0.4330 0.4323 0.4315 0.4323 0.4338 0.4338 0.4346 0.4354 0.4362 0.4377 0.4393 0.4424 0.4464 0.4518 0.4565 0.4612 0.4675 0.4722 0.4761 0.4792 0.4816 0.4824 0.4824 0.4816 0.4808 0.4792 0.4777 0.4761 0.4761 0.4753 0.4745 0.4722 0.4706 0.4691 0.4652 0.4612 0.4581 0.4558 0.4534 0.4534 0.4526 0.4534 0.4573 0.4605 0.4612 0.4612 0.4636 0.4652 0.4659 0.4659 0.4659 0.4667 0.4683 0.4691 0.4683 0.4667 0.4644 0.4620 0.4612 0.4628 0.4620 0.4605 0.4581 0.4558 0.4542 0.4542 0.4526 0.4495 0.4471 0.4448 0.4424 0.4417 0.4417 0.4417 0.4409 0.4401 0.4393 0.4393 0.4401 0.4393 0.4377 0.4377 0.4370 0.4362 0.4362 0.4362 0.4377 0.4393 0.4401 0.4417 0.4440 0.4479 0.4518 0.4550 0.4565 0.4542 0.4526 0.4495 0.4464 0.4417 0.4370 0.4338 0.4315 0.4299 0.4291 0.4291 0.4291 0.4291 0.4307 0.4323 0.4323 0.4330 0.4338 0.4354 0.4354 0.4354 0.4354 0.4362 0.4354 0.4346 0.4338 0.4330 0.4323 0.4323 0.4315 0.4299 0.4291 0.4283 0.4283 0.4268 0.4260 0.4268 0.4283 0.4291 0.4291 0.4276 0.4260 0.4244 0.4244 0.4236 0.4229 0.4221 0.4221 0.4213 0.4205 0.4213 0.4213 0.4205 0.4190 0.4182 0.4190 0.4190
0.4699 0.4722 0.4714 0.4706 0.4691 0.4675 0.4644 0.4628 0.4612 0.4605 0.4605 0.4597 0.4565 0.4550 0.4542 0.4542 0.4550 0.4558 0.4565 0.4565 0.4565 0.4558 0.4558 0.4550 0.4542 0.4542 0.4550 0.4550 0.4550 0.4550 0.4542 0.4534 0.4542 0.4565 0.4573 0.4581 0.4581 0.4589 0.4605 0.4612 0.4628 0.4636 0.4636 0.4636 0.4644 0.4652 0.4644 0.4636 0.4659 0.4675 0.4683 0.4683 0.4683 0.4683 0.4667 0.4675 0.4683 0.4675 0.4659 0.4659 0.4667 0.4659 0.4667 0.4683 0.4691 0.4691 0.4683 0.4691 0.4683 0.4675 0.4659 0.4628 0.4605 0.4589 0.4573 0.4565 0.4558 0.4534 0.4511 0.4487 0.4479 0.4479 0.4487 0.4495 0.4479 0.4440 0.4409 0.4385 0.4370 0.4354 0.4338 0.4315 0.4315 0.4330 0.4330 0.4330 0.4346 0.4362 0.4370 0.4377 0.4401 0.4448 0.4495 0.4534 0.4565 0.4612 0.4667 0.4714 0.4753 0.4777 0.4800 0.4800 0.4800 0.4785 0.4777 0.4761 0.4745 0.4745 0.4745 0.4730 0.4714 0.4691 0.4667 0.4644 0.4612 0.4573 0.4534 0.4518 0.4511 0.4511 0.4526 0.4565 0.4581 0.4581 0.4581 0.4597 0.4612 0.4628 0.4636 0.4644 0.4667 0.4683 0.4699 0.4691 0.4683 0.4659 0.4636 0.4644 0.4659 0.4652 0.4628 0.4605 0.4581 0.4558 0.4542 0.4526 0.4511 0.4503 0.4479 0.4448 0.4424 0.4424 0.4409 0.4409 0.4401 0.4393 0.4377 0.4370 0.4354 0.4354 0.4354 0.4370 0.4393 0.4417 0.4432 0.4456 0.4456 0.4448 0.4464 0.4487 0.4518 0.4565 0.4573 0.4558 0.4542 0.4526 0.4495 0.4456 0.4417 0.4385 0.4354 0.4330 0.4299 0.4283 0.4276 0.4276 0.4283 0.4291 0.4307 0.4315 0.4315 0.4330 0.4330 0.4330 0.4330 0.4338 0.4354 0.4346 0.4338 0.4338 0.4346 0.4338 0.4323 0.4315 0.4291 0.4283 0.4283 0.4283 0.4268 0.4260 0.4260 0.4276 0.4276 0.4276 0.4276 0.4260 0.4252 0.4244 0.4236 0.4221 0.4221 0.4213 0.4205 0.4197 0.4197 0.4205 0.4190 0.4182 0.4182 0.4190 0.4190
0.4738 0.4745 0.4745 0.4730 0.4722 0.4706 0.4683 0.4659 0.4644 0.4628 0.4628 0.4620 0.4589 0.4581 0.4573 0.4558 0.4565 0.4573 0.4581 0.4581 0.4581 0.4581 0.4581 0.4581 0.4565 0.4565 0.4573 0.4581 0.4573 0.4581 0.4589 0.4589 0.4581 0.4589 0.4597 0.4589 0.4597 0.4605 0.4620 0.4644 0.4652 0.4659 0.4659 0.4667 0.4667 0.4667 0.4667 0.4659 0.4675 0.4699 0.4706 0.4706 0.4706 0.4699 0.4691 0.4699 0.4699 0.4706 0.4691 0.4691 0.4683 0.4691 0.4699 0.4706 0.4706 0.4699 0.4691 0.4691 0.4683 0.4675 0.4652 0.4620 0.4605 0.4597 0.4581 0.4565 0.4565 0.4558 0.4526 0.4503 0.4495 0.4495 0.4503 0.4518 0.4503 0.4479 0.4448 0.4424 0.4393 0.4385 0.4362 0.4338 0.4315 0.4315 0.4315 0.4323 0.4330 0.4338 0.4354 0.4362 0.4377 0.4417 0.4448 0.4471 0.4511 0.4558 0.4605 0.4644 0.4691 0.4722 0.4738 0.4761 0.4777 0.4761 0.4753 0.4738 0.4730 0.4722 0.4722 0.4714 0.4699 0.4683 0.4652 0.4620 0.4597 0.4565 0.4534 0.4511 0.4495 0.4487 0.4495 0.4518 0.4534 0.4542 0.4550 0.4565 0.4581 0.4597 0.4612 0.4628 0.4659 0.4691 0.4706 0.4722 0.4714 0.4691 0.4675 0.4675 0.4675 0.4667 0.4652 0.4636 0.4612 0.4589 0.4558 0.4550 0.4550 0.4526 0.4495 0.4464 0.4440 0.4424 0.4424 0.4424 0.4409 0.4385 0.4370 0.4354 0.4354 0.4354 0.4354 0.4377 0.4409 0.4448 0.4471 0.4511 0.4511 0.4511 0.4526 0.4542 0.4573 0.4573 0.4573 0.4550 0.4534 0.4526 0.4495 0.4464 0.4432 0.4401 0.4377 0.4346 0.4307 0.4283 0.4276 0.4276 0.4283 0.4299 0.4291 0.4291 0.4299 0.4307 0.4315 0.4307 0.4307 0.4330 0.4346 0.4338 0.4323 0.4338 0.4338 0.4338 0.4323 0.4307 0.4291 0.4291 0.4291 0.4291 0.4276 0.4260 0.4260 0.4252 0.4260 0.4260 0.4260 0.4268 0.4260 0.4252 0.4236 0.4213 0.4205 0.4213 0.4197 0.4182 0.4182 0.4190 0.4190 0.4190 0.4190 0.4190 0.4190
0.4753 0.4753 0.4753 0.4753 0.4753 0.4738 0.4730 0.4699 0.4667 0.4659 0.4644 0.4636 0.4612 0.4612 0.4612 0.4597 0.4581 0.4597 0.4605 0.4605 0.4605 0.4605 0.4612 0.4620 0.4628 0.4628 0.4620 0.4612 0.4605 0.4612 0.4620 0.4628 0.4644 0.4659 0.4675 0.4683 0.4659 0.4644 0.4644 0.4659 0.4683 0.4683 0.4691 0.4691 0.4691 0.4691 0.4691 0.4691 0.4706 0.4722 0.4730 0.4722 0.4722 0.4722 0.4730 0.4714 0.4722 0.4722 0.4722 0.4714 0.4722 0.4730 0.4722 0.4722 0.4714 0.4699 0.4691 0.4683 0.4675 0.4659 0.4644 0.4628 0.4612 0.4605 0.4597 0.4581 0.4581 0.4581 0.4565 0.4542 0.4526 0.4518 0.4511 0.4503 0.4495 0.4479 0.4464 0.4440 0.4424 0.4417 0.4401 0.4377 0.4354 0.4330 0.4323 0.4315 0.4307 0.4307 0.4307 0.4323 0.4346 0.4377 0.4417 0.4432 0.4464 0.4495 0.4534 0.4589 0.4628 0.4652 0.4667 0.4691 0.4714 0.4730 0.4714 0.4699 0.4699 0.4714 0.4714 0.4714 0.4699 0.4659 0.4628 0.4605 0.4573 0.4542 0.4518 0.4503 0.4487 0.4471 0.4471 0.4495 0.4518 0.4534 0.4542 0.4550 0.4573 0.4589 0.4597 0.4620 0.4659 0.4699 0.4722 0.4745 0.4745 0.4745 0.4730 0.4722 0.4706 0.4706 0.4699 0.4667 0.4636 0.4612 0.4605 0.4605 0.4573 0.4542 0.4511 0.4479 0.4440 0.4424 0.4424 0.4432 0.4432 0.4417 0.4401 0.4393 0.4401 0.4393 0.4401 0.4417 0.4464 0.4503 0.4534 0.4550 0.4573 0.4597 0.4605 0.4605 0.4581 0.4565 0.4565 0.4550 0.4534 0.4518 0.4495 0.4456 0.4432 0.4409 0.4393 0.4370 0.4330 0.4299 0.4276 0.4276 0.4276 0.4276 0.4268 0.4268 0.4283 0.4291 0.4291 0.4291 0.4291 0.4307 0.4323 0.4307 0.4307 0.4315 0.4323 0.4323 0.4315 0.4299 0.4299 0.4299 0.4299 0.4299 0.4283 0.4268 0.4252 0.4244 0.4252 0.4252 0.4260 0.4260 0.4260 0.4252 0.4236 0.4221 0.4221 0.4221 0.4213 0.4197 0.4190 0.4190 0.4190 0.4190 0.4182 0.4182 0.4182
0.4792 0.4785 0.4777 0.4785 0.4785 0.4777 0.4761 0.4738 0.4706 0.4683 0.4667 0.4652 0.4628 0.4628 0.4620 0.4612 0.4620 0.4620 0.4636 0.4636 0.4636 0.4636 0.4644 0.4667 0.4683 0.4683 0.4675 0.4667 0.4659 0.4659 0.4667 0.4675 0.4683 0.4714 0.4722 0.4722 0.4691 0.4667 0.4683 0.4714 0.4722 0.4722 0.4722 0.4722 0.4714 0.4714 0.4722 0.4730 0.4738 0.4745 0.4753 0.4753 0.4745 0.4745 0.4738 0.4738 0.4738 0.4730 0.4730 0.4730 0.4738 0.4745 0.4738 0.4738 0.4730 0.4706 0.4691 0.4683 0.4675 0.4659 0.4644 0.4636 0.4636 0.4628 0.4612 0.4605 0.4597 0.4597 0.4597 0.4597 0.4589 0.4565 0.4542 0.4518 0.4511 0.4495 0.4479 0.4471 0.4464 0.4456 0.4448 0.4432 0.4417 0.4393 0.4377 0.4362 0.4338 0.4315 0.4299 0.4299 0.4330 0.4385 0.4409 0.4424 0.4448 0.4464 0.4495 0.4534 0.4573 0.4605 0.4636 0.4652 0.4667 0.4675 0.4667 0.4659 0.4675 0.4691 0.4714 0.4714 0.4691 0.4659 0.4620 0.4581 0.4550 0.4526 0.4503 0.4495 0.4487 0.4479 0.4487 0.4511 0.4534 0.4542 0.4550 0.4558 0.4573 0.4597 0.4612 0.4636 0.4667 0.4706 0.4730 0.4761 0.4785 0.4785 0.4785 0.4769 0.4753 0.4745 0.4745 0.4722 0.4667 0.4652 0.4644 0.4628 0.4597 0.4573 0.4534 0.4503 0.4456 0.4432 0.4432 0.4456 0.4479 0.4471 0.4448 0.4448 0.4448 0.4448 0.4456 0.4487 0.4518 0.4558 0.4573 0.4589 0.4605 0.4620 0.4628 0.4620 0.4589 0.4565 0.4550 0.4542 0.4518 0.4495 0.4479 0.4456 0.4432 0.4409 0.4401 0.4377 0.4338 0.4315 0.4299 0.4276 0.4260 0.4252 0.4244 0.4252 0.4260 0.4268 0.4276 0.4283 0.4283 0.4291 0.4276 0.4276 0.4268 0.4276 0.4283 0.4291 0.4291 0.4291 0.4291 0.4291 0.4291 0.4291 0.4283 0.4268 0.4252 0.4252 0.4252 0.4252 0.4252 0.4244 0.4244 0.4229 0.4229 0.4221 0.4221 0.4229 0.4221 0.4213 0.4205 0.4197 0.4197 0.4190 0.4182 0.4182 0.4182
0.4832 0.4824 0.4816 0.4816 0.4816 0.4808 0.4792 0.4761 0.4738 0.4714 0.4691 0.4675 0.4667 0.4659 0.4659 0.4659 0.4667 0.4675 0.4675 0.4675 0.4675 0.4675 0.4691 0.4706 0.4722 0.4722 0.4714 0.4699 0.4699 0.4706 0.4699 0.4699 0.4722 0.4738 0.4738 0.4730 0.4722 0.4706 0.4714 0.4738 0.4753 0.4745 0.4745 0.4745 0.4738 0.4738 0.4745 0.4753 0.4753 0.4769 0.4761 0.4761 0.4753 0.4753 0.4753 0.4745 0.4738 0.4738 0.4738 0.4745 0.4753 0.4761 0.4761 0.4753 0.4745 0.4722 0.4691 0.4683 0.4675 0.4667 0.4652 0.4652 0.4652 0.4652 0.4636 0.4612 0.4605 0.4612 0.4612 0.4620 0.4620 0.4605 0.4581 0.4558 0.4534 0.4503 0.4495 0.4495 0.4487 0.4479 0.4471 0.4448 0.4432 0.4417 0.4409 0.4393 0.4370 0.4338 0.4315 0.4307 0.4323 0.4354 0.4393 0.4424 0.4432 0.4448 0.4464 0.4503 0.4558 0.4605 0.4636 0.4652 0.4644 0.4636 0.4628 0.4620 0.4652 0.4683 0.4699 0.4699 0.4683 0.4652 0.4605 0.4558 0.4526 0.4503 0.4495 0.4487 0.4487 0.4503 0.4518 0.4534 0.4558 0.4581 0.4589 0.4589 0.4589 0.4612 0.4636 0.4667 0.4699 0.4714 0.4745 0.4777 0.4800 0.4808 0.4800 0.4808 0.4800 0.4785 0.4777 0.4761 0.4714 0.4683 0.4667 0.4644 0.4620 0.4597 0.4573 0.4542 0.4503 0.4487 0.4471 0.4503 0.4511 0.4511 0.4487 0.4487 0.4503 0.4511 0.4526 0.4550 0.4565 0.4581 0.4605 0.4628 0.4644 0.4644 0.4628 0.4612 0.4589 0.4565 0.4550 0.4526 0.4511 0.4495 0.4479 0.4456 0.4432 0.4417 0.4393 0.4370 0.4346 0.4338 0.4315 0.4276 0.4244 0.4236 0.4236 0.4244 0.4252 0.4252 0.4252 0.4268 0.4276 0.4276 0.4260 0.4244 0.4236 0.4244 0.4260 0.4268 0.4276 0.4276 0.4283 0.4283 0.4283 0.4283 0.4283 0.4276 0.4276 0.4268 0.4252 0.4236 0.4236 0.4236 0.4229 0.4221 0.4213 0.4213 0.4213 0.4205 0.4213 0.4221 0.4221 0.4213 0.4205 0.4205 0.4197 0.4205 0.4205
0.4879 0.4871 0.4863 0.4863 0.4855 0.4855 0.4839 0.4816 0.4792 0.4761 0.4745 0.4706 0.4699 0.4691 0.4699 0.4706 0.4714 0.4714 0.4714 0.4722 0.4722 0.4730 0.4730 0.4745 0.4761 0.4769 0.4761 0.4745 0.4738 0.4738 0.4730 0.4714 0.4730 0.4745 0.4745 0.4761 0.4753 0.4738 0.4738 0.4753 0.4761 0.4769 0.4769 0.4769 0.4761 0.4761 0.4769 0.4777 0.4777 0.4777 0.4777 0.4769 0.4769 0.4769 0.4769 0.4761 0.4753 0.4753 0.4761 0.4761 0.4769 0.4769 0.4761 0.4753 0.4738 0.4714 0.4691 0.4683 0.4683 0.4675 0.4675 0.4667 0.4667 0.4667 0.4659 0.4644 0.4636 0.4628 0.4628 0.4620 0.4620 0.4620 0.4605 0.4581 0.4542 0.4534 0.4526 0.4518 0.4511 0.4495 0.4471 0.4456 0.4432 0.4424 0.4417 0.4401 0.4377 0.4346 0.4323 0.4315 0.4315 0.4338 0.4377 0.4401 0.4409 0.4424 0.4448 0.4487 0.4550 0.4589 0.4628 0.4628 0.4612 0.4597 0.4597 0.4605 0.4644 0.4683 0.4699 0.4691 0.4659 0.4628 0.4589 0.4550 0.4511 0.4487 0.4471 0.4464 0.4487 0.4526 0.4550 0.4581 0.4612 0.4644 0.4644 0.4628 0.4628 0.4636 0.4652 0.4675 0.4699 0.4730 0.4753 0.4792 0.4816 0.4832 0.4839 0.4847 0.4847 0.4824 0.4816 0.4800 0.4761 0.4738 0.4722 0.4683 0.4644 0.4612 0.4597 0.4565 0.4550 0.4534 0.4534 0.4542 0.4573 0.4565 0.4550 0.4542 0.4565 0.4581 0.4605 0.4620 0.4620 0.4636 0.4644 0.4667 0.4667 0.4652 0.4636 0.4605 0.4573 0.4558 0.4550 0.4534 0.4511 0.4487 0.4471 0.4448 0.4432 0.4409 0.4385 0.4370 0.4354 0.4338 0.4315 0.4276 0.4244 0.4229 0.4229 0.4236 0.4244 0.4244 0.4236 0.4236 0.4252 0.4252 0.4244 0.4229 0.4221 0.4229 0.4260 0.4268 0.4260 0.4260 0.4260 0.4268 0.4268 0.4276 0.4283 0.4283 0.4291 0.4268 0.4244 0.4229 0.4229 0.4229 0.4229 0.4213 0.4213 0.4221 0.4213 0.4197 0.4197 0.4213 0.4213 0.4205 0.4205 0.4213 0.4213 0.4213 0.4213
0.4902 0.4894 0.4894 0.4894 0.4910 0.4902 0.4894 0.4871 0.4832 0.4800 0.4769 0.4738 0.4722 0.4714 0.4722 0.4738 0.4745 0.4753 0.4745 0.4745 0.4753 0.4769 0.4777 0.4785 0.4792 0.4800 0.4800 0.4785 0.4777 0.4777 0.4761 0.4745 0.4745 0.4753 0.4761 0.4777 0.4769 0.4753 0.4753 0.4777 0.4785 0.4792 0.4792 0.4792 0.4785 0.4785 0.4792 0.4792 0.4792 0.4792 0.4785 0.4785 0.4785 0.4777 0.4769 0.4777 0.4769 0.4777 0.4777 0.4777 0.4777 0.4769 0.4761 0.4753 0.4738 0.4722 0.4706 0.4699 0.4691 0.4691 0.4691 0.4683 0.4683 0.4691 0.4683 0.4683 0.4667 0.4659 0.4652 0.4636 0.4612 0.4605 0.4597 0.4581 0.4565 0.4558 0.4565 0.4550 0.4526 0.4511 0.4487 0.4464 0.4456 0.4448 0.4440 0.4424 0.4393 0.4362 0.4338 0.4330 0.4330 0.4346 0.4370 0.4377 0.4393 0.4409 0.4432 0.4471 0.4518 0.4573 0.4597 0.4597 0.4573 0.4550 0.4550 0.4589 0.4644 0.4675 0.4675 0.4667 0.4652 0.4620 0.4573 0.4526 0.4487 0.4456 0.4432 0.4448 0.4487 0.4534 0.4573 0.4612 0.4652 0.4667 0.4667 0.4659 0.4652 0.4652 0.4659 0.4667 0.4691 0.4730 0.4761 0.4785 0.4816 0.4847 0.4871 0.4879 0.4871 0.4863 0.4847 0.4824 0.4800 0.4761 0.4738 0.4706 0.4675 0.4636 0.4605 0.4581 0.4581 0.4573 0.4573 0.4612 0.4620 0.4605 0.4581 0.4597 0.4612 0.4628 0.4659 0.4675 0.4683 0.4691 0.4699 0.4683 0.4683 0.4667 0.4628 0.4597 0.4573 0.4550 0.4542 0.4518 0.4487 0.4464 0.4440 0.4432 0.4417 0.4393 0.4370 0.4362 0.4354 0.4338 0.4315 0.4283 0.4260 0.4244 0.4229 0.4229 0.4229 0.4229 0.4229 0.4229 0.4236 0.4244 0.4236 0.4236 0.4229 0.4244 0.4260 0.4260 0.4252 0.4252 0.4252 0.4252 0.4260 0.4268 0.4276 0.4276 0.4268 0.4260 0.4244 0.4236 0.4244 0.4244 0.4229 0.4221 0.4221 0.4229 0.4221 0.4205 0.4205 0.4205 0.4205 0.4190 0.4190 0.4205 0.4213 0.4205 0.4205
0.4926 0.4926 0.4926 0.4926 0.4918 0.4910 0.4910 0.4894 0.4863 0.4824 0.4792 0.4769 0.4753 0.4745 0.4745 0.4761 0.4769 0.4769 0.4769 0.4777 0.4785 0.4785 0.4808 0.4808 0.4816 0.4816 0.4832 0.4839 0.4824 0.4816 0.4792 0.4777 0.4761 0.4761 0.4777 0.4785 0.4777 0.4769 0.4769 0.4777 0.4792 0.4792 0.4800 0.4800 0.4792 0.4792 0.4792 0.4800 0.4800 0.4800 0.4800 0.4800 0.4792 0.4777 0.4777 0.4777 0.4785 0.4785 0.4792 0.4792 0.4785 0.4777 0.4777 0.4761 0.4745 0.4730 0.4722 0.4706 0.4699 0.4699 0.4699 0.4706 0.4706 0.4706 0.4706 0.4714 0.4699 0.4683 0.4675 0.4667 0.4628 0.4605 0.4589 0.4581 0.4573 0.4573 0.4581 0.4573 0.4550 0.4526 0.4511 0.4503 0.4479 0.4464 0.4448 0.4432 0.4401 0.4370 0.4346 0.4338 0.4338 0.4346 0.4346 0.4354 0.4362 0.4393 0.4424 0.4448 0.4487 0.4542 0.4565 0.4558 0.4534 0.4511 0.4511 0.4565 0.4628 0.4659 0.4667 0.4667 0.4644 0.4605 0.4558 0.4526 0.4471 0.4440 0.4417 0.4424 0.4471 0.4526 0.4565 0.4605 0.4644 0.4667 0.4667 0.4659 0.4644 0.4628 0.4628 0.4644 0.4675 0.4706 0.4738 0.4769 0.4800 0.4832 0.4863 0.4879 0.4879 0.4871 0.4863 0.4839 0.4816 0.4792 0.4777 0.4730 0.4691 0.4659 0.4620 0.4597 0.4597 0.4605 0.4628 0.4644 0.4644 0.4620 0.4620 0.4636 0.4659 0.4675 0.4699 0.4706 0.4714 0.4722 0.4706 0.4691 0.4675 0.4652 0.4620 0.4589 0.4565 0.4534 0.4503 0.4487 0.4464 0.4432 0.4424 0.4417 0.4401 0.4377 0.4362 0.4354 0.4346 0.4338 0.4330 0.4299 0.4276 0.4260 0.4244 0.4244 0.4236 0.4229 0.4221 0.4213 0.4221 0.4221 0.4229 0.4236 0.4244 0.4252 0.4252 0.4252 0.4252 0.4260 0.4252 0.4252 0.4260 0.4268 0.4268 0.4260 0.4252 0.4236 0.4236 0.4244 0.4260 0.4252 0.4236 0.4221 0.4221 0.4229 0.4221 0.4213 0.4205 0.4197 0.4197 0.4190 0.4190 0.4197 0.4197 0.4197 0.4197
0.4949 0.4941 0.4941 0.4933 0.4918 0.4910 0.4910 0.4910 0.4886 0.4855 0.4832 0.4800 0.4777 0.4769 0.4769 0.4777 0.4785 0.4792 0.4800 0.4808 0.4816 0.4824 0.4832 0.4824 0.4824 0.4839 0.4847 0.4847 0.4839 0.4824 0.4800 0.4792 0.4792 0.4792 0.4792 0.4792 0.4792 0.4785 0.4785 0.4792 0.4800 0.4808 0.4816 0.4800 0.4792 0.4792 0.4800 0.4808 0.4824 0.4824 0.4824 0.4816 0.4808 0.4792 0.4785 0.4785 0.4792 0.4792 0.4800 0.4800 0.4792 0.4785 0.4785 0.4769 0.4745 0.4738 0.4738 0.4730 0.4714 0.4714 0.4714 0.4730 0.4738 0.4730 0.4738 0.4730 0.4730 0.4722 0.4706 0.4691 0.4659 0.4628 0.4605 0.4589 0.4581 0.4581 0.4605 0.4597 0.4573 0.4558 0.4550 0.4534 0.4511 0.4479 0.4456 0.4424 0.4393 0.4370 0.4346 0.4330 0.4330 0.4330 0.4338 0.4338 0.4346 0.4370 0.4393 0.4424 0.4471 0.4518 0.4526 0.4518 0.4495 0.4471 0.4503 0.4558 0.4620 0.4636 0.4644 0.4644 0.4628 0.4597 0.4565 0.4526 0.4471 0.4440 0.4432 0.4432 0.4456 0.4495 0.4534 0.4573 0.4620 0.4652 0.4667 0.4644 0.4620 0.4597 0.4597 0.4612 0.4628 0.4675 0.4722 0.4753 0.4785 0.4808 0.4832 0.4855 0.4863 0.4863 0.4855 0.4847 0.4832 0.4824 0.4808 0.4777 0.4745 0.4706 0.4659 0.4628 0.4628 0.4636 0.4667 0.4691 0.4675 0.4683 0.4675 0.4675 0.4691 0.4714 0.4722 0.4730 0.4722 0.4714 0.4699 0.4675 0.4659 0.4636 0.4605 0.4565 0.4534 0.4511 0.4487 0.4471 0.4448 0.4424 0.4417 0.4409 0.4393 0.4377 0.4362 0.4354 0.4346 0.4338 0.4315 0.4307 0.4283 0.4260 0.4252 0.4244 0.4244 0.4221 0.4197 0.4197 0.4197 0.4205 0.4213 0.4221 0.4236 0.4244 0.4244 0.4252 0.4260 0.4260 0.4252 0.4260 0.4268 0.4268 0.4260 0.4252 0.4244 0.4236 0.4236 0.4244 0.4260 0.4260 0.4244 0.4221 0.4213 0.4213 0.4221 0.4205 0.4197 0.4197 0.4197 0.4205 0.4197 0.4197 0.4190 0.4190 0.4190
0.4965 0.4949 0.4949 0.4949 0.4941 0.4933 0.4933 0.4926 0.4910 0.4894 0.4871 0.4847 0.4816 0.4800 0.4800 0.4808 0.4808 0.4816 0.4816 0.4832 0.4847 0.4871 0.4855 0.4855 0.4863 0.4871 0.4894 0.4879 0.4855 0.4832 0.4808 0.4816 0.4824 0.4832 0.4824 0.4816 0.4808 0.4808 0.4808 0.4816 0.4824 0.4832 0.4832 0.4824 0.4816 0.4832 0.4839 0.4847 0.4847 0.4847 0.4832 0.4832 0.4824 0.4808 0.4800 0.4792 0.4800 0.4800 0.4808 0.4808 0.4792 0.4785 0.4777 0.4769 0.4753 0.4753 0.4753 0.4738 0.4730 0.4730 0.4745 0.4753 0.4761 0.4745 0.4745 0.4745 0.4745 0.4738 0.4722 0.4699 0.4675 0.4659 0.4644 0.4612 0.4589 0.4597 0.4605 0.4605 0.4589 0.4565 0.4565 0.4550 0.4511 0.4487 0.4464 0.4448 0.4417 0.4409 0.4385 0.4354 0.4323 0.4315 0.4323 0.4330 0.4338 0.4346 0.4370 0.4401 0.4440 0.4471 0.4487 0.4479 0.4448 0.4448 0.4487 0.4550 0.4565 0.4581 0.4605 0.4597 0.4597 0.4565 0.4534 0.4495 0.4456 0.4440 0.4432 0.4448 0.4471 0.4495 0.4526 0.4573 0.4605 0.4628 0.4636 0.4620 0.4597 0.4573 0.4573 0.4573 0.4589 0.4644 0.4706 0.4738 0.4777 0.4785 0.4816 0.4839 0.4855 0.4855 0.4847 0.4839 0.4832 0.4824 0.4808 0.4792 0.4769 0.4745 0.4706 0.4675 0.4667 0.4683 0.4699 0.4714 0.4722 0.4730 0.4730 0.4730 0.4730 0.4738 0.4730 0.4730 0.4722 0.4714 0.4683 0.4659 0.4636 0.4605 0.4573 0.4542 0.4526 0.4503 0.4479 0.4464 0.4440 0.4417 0.4409 0.4393 0.4377 0.4370 0.4362 0.4354 0.4354 0.4330 0.4307 0.4299 0.4291 0.4276 0.4252 0.4252 0.4244 0.4229 0.4205 0.4197 0.4197 0.4205 0.4213 0.4221 0.4229 0.4236 0.4229 0.4236 0.4252 0.4244 0.4229 0.4244 0.4260 0.4260 0.4252 0.4244 0.4244 0.4244 0.4236 0.4244 0.4252 0.4244 0.4229 0.4205 0.4205 0.4221 0.4213 0.4205 0.4197 0.4205 0.4205 0.4205 0.4197 0.4190 0.4182 0.4182 0.4182
0.5012 0.4996 0.4988 0.4980 0.4965 0.4965 0.4957 0.4949 0.4941 0.4926 0.4918 0.4886 0.4863 0.4839 0.4839 0.4832 0.4832 0.4839 0.4847 0.4863 0.4886 0.4894 0.4886 0.4879 0.4871 0.4879 0.4894 0.4894 0.4879 0.4863 0.4847 0.4855 0.4871 0.4879 0.4863 0.4863 0.4839 0.4832 0.4832 0.4839 0.4847 0.4855 0.4863 0.4871 0.4871 0.4863 0.4871 0.4871 0.4863 0.4855 0.4855 0.4855 0.4855 0.4832 0.4824 0.4808 0.4816 0.4824 0.4832 0.4816 0.4808 0.4792 0.4785 0.4777 0.4769 0.4761 0.4769 0.4769 0.4761 0.4753 0.4753 0.4761 0.4769 0.4753 0.4753 0.4753 0.4753 0.4761 0.4738 0.4714 0.4699 0.4675 0.4667 0.4636 0.4620 0.4612 0.4612 0.4612 0.4589 0.4558 0.4558 0.4550 0.4511 0.4487 0.4479 0.4471 0.4456 0.4456 0.4432 0.4385 0.4338 0.4315 0.4315 0.4323 0.4330 0.4338 0.4346 0.4362 0.4393 0.4409 0.4424 0.4424 0.4424 0.4432 0.4464 0.4487 0.4495 0.4518 0.4542 0.4550 0.4526 0.4503 0.4479 0.4464 0.4440 0.4424 0.4424 0.4448 0.4495 0.4534 0.4558 0.4573 0.4597 0.4612 0.4612 0.4589 0.4573 0.4558 0.4542 0.4542 0.4573 0.4628 0.4675 0.4714 0.4745 0.4785 0.4808 0.4824 0.4839 0.4839 0.4832 0.4824 0.4816 0.4808 0.4800 0.4785 0.4769 0.4753 0.4722 0.4699 0.4706 0.4714 0.4738 0.4745 0.4753 0.4753 0.4753 0.4745 0.4738 0.4730 0.4722 0.4714 0.4706 0.4691 0.4675 0.4644 0.4612 0.4581 0.4542 0.4526 0.4511 0.4487 0.4471 0.4448 0.4417 0.4393 0.4385 0.4377 0.4377 0.4370 0.4362 0.4362 0.4346 0.4330 0.4315 0.4307 0.4307 0.4291 0.4268 0.4260 0.4252 0.4244 0.4236 0.4221 0.4213 0.4213 0.4221 0.4221 0.4221 0.4221 0.4213 0.4213 0.4221 0.4213 0.4221 0.4236 0.4252 0.4252 0.4244 0.4229 0.4236 0.4244 0.4244 0.4244 0.4244 0.4229 0.4205 0.4205 0.4213 0.4229 0.4213 0.4197 0.4197 0.4205 0.4205 0.4197 0.4190 0.4182 0.4182 0.4190 0.4190
0.5059 0.5051 0.5027 0.5004 0.4980 0.4980 0.4965 0.4957 0.4957 0.4941 0.4933 0.4918 0.4886 0.4863 0.4847 0.4847 0.4863 0.4871 0.4871 0.4886 0.4902 0.4910 0.4902 0.4894 0.4879 0.4879 0.4894 0.4902 0.4894 0.4886 0.4879 0.4886 0.4894 0.4902 0.4910 0.4894 0.4879 0.4863 0.4855 0.4871 0.4879 0.4886 0.4910 0.4926 0.4918 0.4902 0.4886 0.4879 0.4879 0.4879 0.4886 0.4886 0.4871 0.4847 0.4839 0.4839 0.4847 0.4855 0.4847 0.4839 0.4832 0.4824 0.4824 0.4816 0.4808 0.4792 0.4792 0.4792 0.4785 0.4777 0.4761 0.4761 0.4761 0.4761 0.4761 0.4769 0.4769 0.4769 0.4761 0.4738 0.4714 0.4683 0.4652 0.4628 0.4620 0.4612 0.4612 0.4612 0.4589 0.4558 0.4542 0.4526 0.4511 0.4495 0.4495 0.4479 0.4479 0.4471 0.4456 0.4417 0.4370 0.4338 0.4323 0.4323 0.4330 0.4338 0.4338 0.4330 0.4338 0.4362 0.4370 0.4370 0.4377 0.4385 0.4409 0.4424 0.4440 0.4456 0.4471 0.4471 0.4471 0.4464 0.4464 0.4440 0.4417 0.4409 0.4424 0.4464 0.4511 0.4542 0.4558 0.4581 0.4581 0.4589 0.4581 0.4573 0.4550 0.4526 0.4518 0.4518 0.4550 0.4589 0.4636 0.4659 0.4706 0.4753 0.4785 0.4808 0.4816 0.4816 0.4808 0.4800 0.4792 0.4785 0.4785 0.4769 0.4753 0.4730 0.4714 0.4706 0.4714 0.4730 0.4745 0.4761 0.4769 0.4769 0.4761 0.4745 0.4738 0.4722 0.4706 0.4691 0.4683 0.4667 0.4652 0.4636 0.4605 0.4558 0.4526 0.4511 0.4495 0.4471 0.4448 0.4432 0.4409 0.4385 0.4377 0.4370 0.4370 0.4370 0.4362 0.4354 0.4346 0.4338 0.4323 0.4315 0.4307 0.4291 0.4283 0.4268 0.4260 0.4260 0.4244 0.4229 0.4213 0.4213 0.4205 0.4197 0.4197 0.4197 0.4197 0.4197 0.4197 0.4205 0.4213 0.4229 0.4236 0.4229 0.4221 0.4213 0.4205 0.4229 0.4236 0.4236 0.4229 0.4213 0.4205 0.4205 0.4221 0.4229 0.4213 0.4197 0.4197 0.4205 0.4197 0.4190 0.4182 0.4182 0.4182 0.4174 0.4174
0.5082 0.5067 0.5043 0.5012 0.4988 0.4980 0.4973 0.4973 0.4965 0.4957 0.4941 0.4933 0.4926 0.4894 0.4879 0.4886 0.4902 0.4902 0.4902 0.4910 0.4926 0.4926 0.4918 0.4910 0.4902 0.4910 0.4918 0.4918 0.4918 0.4910 0.4902 0.4902 0.4910 0.4918 0.4918 0.4910 0.4902 0.4894 0.4894 0.4902 0.4902 0.4910 0.4926 0.4933 0.4926 0.4910 0.4894 0.4886 0.4886 0.4894 0.4902 0.4894 0.4879 0.4855 0.4847 0.4847 0.4855 0.4863 0.4863 0.4863 0.4863 0.4855 0.4847 0.4832 0.4816 0.4816 0.4808 0.4800 0.4792 0.4777 0.4769 0.4761 0.4753 0.4753 0.4761 0.4761 0.4769 0.4769 0.4761 0.4761 0.4738 0.4706 0.4644 0.4628 0.4628 0.4620 0.4605 0.4605 0.4605 0.4573 0.4550 0.4534 0.4518 0.4511 0.4503 0.4495 0.4495 0.4487 0.4464 0.4440 0.4401 0.4377 0.4346 0.4330 0.4323 0.4323 0.4323 0.4323 0.4330 0.4330 0.4338 0.4346 0.4346 0.4346 0.4362 0.4393 0.4401 0.4401 0.4409 0.4424 0.4432 0.4448 0.4440 0.4424 0.4409 0.4401 0.4417 0.4456 0.4503 0.4526 0.4542 0.4550 0.4558 0.4550 0.4558 0.4550 0.4526 0.4503 0.4495 0.4503 0.4518 0.4565 0.4597 0.4628 0.4667 0.4722 0.4761 0.4792 0.4800 0.4792 0.4792 0.4785 0.4777 0.4777 0.4761 0.4745 0.4730 0.4714 0.4706 0.4706 0.4706 0.4714 0.4730 0.4745 0.4761 0.4761 0.4753 0.4745 0.4730 0.4714 0.4706 0.4691 0.4675 0.4652 0.4636 0.4620 0.4597 0.4550 0.4518 0.4503 0.4479 0.4456 0.4432 0.4424 0.4401 0.4385 0.4370 0.4362 0.4362 0.4362 0.4354 0.4354 0.4346 0.4338 0.4323 0.4315 0.4299 0.4291 0.4283 0.4276 0.4268 0.4252 0.4236 0.4213 0.4205 0.4197 0.4190 0.4174 0.4182 0.4190 0.4197 0.4197 0.4197 0.4205 0.4205 0.4213 0.4197 0.4190 0.4205 0.4197 0.4197 0.4213 0.4221 0.4213 0.4205 0.4205 0.4205 0.4213 0.4221 0.4221 0.4213 0.4205 0.4197 0.4190 0.4182 0.4174 0.4174 0.4174 0.4166 0.4150 0.4150
0.5106 0.5090 0.5059 0.5020 0.4988 0.4988 0.4988 0.4988 0.4980 0.4973 0.4957 0.4949 0.4949 0.4941 0.4926 0.4933 0.4933 0.4933 0.4933 0.4941 0.4949 0.4949 0.4941 0.4941 0.4933 0.4926 0.4926 0.4926 0.4926 0.4918 0.4918 0.4918 0.4926 0.4926 0.4918 0.4918 0.4910 0.4894 0.4894 0.4918 0.4926 0.4933 0.4933 0.4933 0.4933 0.4918 0.4910 0.4910 0.4910 0.4910 0.4910 0.4902 0.4879 0.4863 0.4855 0.4863 0.4871 0.4871 0.4879 0.4871 0.4871 0.4863 0.4847 0.4839 0.4824 0.4824 0.4824 0.4808 0.4792 0.4785 0.4777 0.4761 0.4753 0.4753 0.4753 0.4761 0.4753 0.4753 0.4753 0.4753 0.4738 0.4691 0.4659 0.4652 0.4659 0.4644 0.4636 0.4620 0.4612 0.4581 0.4565 0.4558 0.4550 0.4534 0.4534 0.4526 0.4511 0.4495 0.4487 0.4464 0.4440 0.4409 0.4377 0.4346 0.4323 0.4307 0.4307 0.4315 0.4315 0.4315 0.4315 0.4330 0.4330 0.4307 0.4330 0.4330 0.4330 0.4338 0.4354 0.4370 0.4401 0.4424 0.4432 0.4417 0.4401 0.4393 0.4409 0.4432 0.4464 0.4487 0.4503 0.4511 0.4511 0.4518 0.4518 0.4518 0.4503 0.4487 0.4479 0.4479 0.4503 0.4542 0.4573 0.4612 0.4644 0.4691 0.4730 0.4769 0.4785 0.4785 0.4785 0.4769 0.4769 0.4761 0.4738 0.4722 0.4706 0.4706 0.4691 0.4683 0.4683 0.4691 0.4699 0.4714 0.4730 0.4738 0.4738 0.4738 0.4722 0.4706 0.4699 0.4683 0.4652 0.4620 0.4612 0.4597 0.4565 0.4534 0.4495 0.4487 0.4471 0.4448 0.4424 0.4409 0.4401 0.4393 0.4377 0.4362 0.4354 0.4346 0.4346 0.4346 0.4338 0.4330 0.4315 0.4307 0.4307 0.4291 0.4283 0.4276 0.4268 0.4244 0.4229 0.4221 0.4213 0.4197 0.4182 0.4182 0.4190 0.4197 0.4205 0.4197 0.4197 0.4190 0.4190 0.4182 0.4174 0.4190 0.4205 0.4213 0.4205 0.4197 0.4205 0.4197 0.4190 0.4205 0.4213 0.4213 0.4213 0.4213 0.4213 0.4205 0.4197 0.4182 0.4166 0.4158 0.4166 0.4174 0.4150 0.4135 0.4135
0.5129 0.5106 0.5082 0.5051 0.5035 0.5020 0.5020 0.5004 0.4996 0.4988 0.4973 0.4973 0.4973 0.4973 0.4980 0.4965 0.4957 0.4957 0.4965 0.4973 0.4980 0.4973 0.4973 0.4965 0.4957 0.4949 0.4933 0.4933 0.4926 0.4926 0.4926 0.4926 0.4926 0.4926 0.4926 0.4918 0.4910 0.4894 0.4894 0.4910 0.4926 0.4926 0.4926 0.4933 0.4933 0.4926 0.4926 0.4926 0.4926 0.4926 0.4910 0.4894 0.4886 0.4879 0.4879 0.4879 0.4879 0.4879 0.4871 0.4871 0.4863 0.4863 0.4855 0.4847 0.4847 0.4847 0.4832 0.4824 0.4808 0.4800 0.4785 0.4769 0.4761 0.4753 0.4761 0.4753 0.4745 0.4738 0.4730 0.4722 0.4699 0.4667 0.4659 0.4667 0.4691 0.4691 0.4667 0.4636 0.4612 0.4589 0.4581 0.4573 0.4573 0.4558 0.4565 0.4581 0.4558 0.4526 0.4511 0.4495 0.4464 0.4432 0.4417 0.4393 0.4354 0.4315 0.4299 0.4291 0.4291 0.4291 0.4299 0.4307 0.4307 0.4299 0.4291 0.4291 0.4276 0.4276 0.4291 0.4315 0.4346 0.4370 0.4385 0.4385 0.4377 0.4370 0.4377 0.4401 0.4417 0.4440 0.4448 0.4464 0.4471 0.4479 0.4479 0.4479 0.4471 0.4464 0.4456 0.4464 0.4487 0.4518 0.4558 0.4605 0.4628 0.4675 0.4706 0.4745 0.4769 0.4777 0.4769 0.4761 0.4745 0.4730 0.4714 0.4699 0.4691 0.4683 0.4683 0.4659 0.4652 0.4652 0.4659 0.4683 0.4706 0.4714 0.4722 0.4706 0.4691 0.4683 0.4675 0.4659 0.4620 0.4597 0.4589 0.4565 0.4542 0.4503 0.4479 0.4456 0.4448 0.4432 0.4417 0.4401 0.4401 0.4385 0.4370 0.4362 0.4354 0.4346 0.4338 0.4330 0.4330 0.4315 0.4307 0.4307 0.4299 0.4291 0.4276 0.4268 0.4260 0.4244 0.4244 0.4244 0.4236 0.4221 0.4205 0.4190 0.4205 0.4197 0.4190 0.4174 0.4174 0.4166 0.4174 0.4190 0.4190 0.4205 0.4213 0.4213 0.4205 0.4190 0.4190 0.4190 0.4190 0.4205 0.4205 0.4205 0.4205 0.4205 0.4213 0.4205 0.4197 0.4182 0.4166 0.4158 0.4166 0.4166 0.4150 0.4127 0.4127
0.5121 0.5114 0.5098 0.5090 0.5074 0.5059 0.5035 0.5012 0.4996 0.4996 0.4996 0.4988 0.4996 0.5004 0.5004 0.4996 0.4980 0.4980 0.4996 0.5004 0.5004 0.5004 0.4996 0.4996 0.4980 0.4965 0.4949 0.4941 0.4933 0.4918 0.4918 0.4926 0.4933 0.4933 0.4933 0.4933 0.4918 0.4902 0.4902 0.4910 0.4918 0.4910 0.4918 0.4918 0.4926 0.4926 0.4926 0.4941 0.4941 0.4926 0.4910 0.4902 0.4894 0.4894 0.4894 0.4894 0.4886 0.4871 0.4871 0.4863 0.4863 0.4855 0.4863 0.4863 0.4863 0.4855 0.4855 0.4847 0.4839 0.4824 0.4800 0.4777 0.4769 0.4761 0.4753 0.4745 0.4730 0.4722 0.4714 0.4699 0.4675 0.4667 0.4683 0.4699 0.4714 0.4706 0.4683 0.4659 0.4636 0.4620 0.4605 0.4605 0.4597 0.4597 0.4605 0.4612 0.4597 0.4565 0.4550 0.4518 0.4479 0.4448 0.4432 0.4409 0.4393 0.4354 0.4315 0.4291 0.4291 0.4283 0.4291 0.4315 0.4323 0.4315 0.4299 0.4283 0.4260 0.4252 0.4276 0.4291 0.4299 0.4315 0.4330 0.4338 0.4346 0.4346 0.4354 0.4370 0.4377 0.4393 0.4417 0.4424 0.4432 0.4432 0.4432 0.4432 0.4432 0.4432 0.4432 0.4440 0.4456 0.4495 0.4534 0.4581 0.4628 0.4675 0.4714 0.4738 0.4753 0.4753 0.4753 0.4753 0.4738 0.4714 0.4699 0.4683 0.4667 0.4659 0.4644 0.4644 0.4636 0.4644 0.4644 0.4659 0.4667 0.4675 0.4683 0.4683 0.4667 0.4659 0.4644 0.4620 0.4605 0.4597 0.4581 0.4558 0.4518 0.4495 0.4464 0.4448 0.4432 0.4417 0.4401 0.4385 0.4377 0.4370 0.4362 0.4354 0.4354 0.4338 0.4330 0.4323 0.4315 0.4307 0.4307 0.4299 0.4291 0.4283 0.4276 0.4268 0.4260 0.4252 0.4252 0.4252 0.4244 0.4244 0.4221 0.4213 0.4197 0.4190 0.4166 0.4158 0.4150 0.4150 0.4174 0.4213 0.4236 0.4221 0.4221 0.4213 0.4197 0.4190 0.4182 0.4190 0.4190 0.4190 0.4182 0.4182 0.4174 0.4190 0.4197 0.4197 0.4190 0.4174 0.4166 0.4150 0.4158 0.4158 0.4150 0.4135 0.4135
0.5121 0.5114 0.5106 0.5098 0.5090 0.5067 0.5051 0.5035 0.5020 0.5020 0.5020 0.5012 0.5020 0.5020 0.5027 0.5020 0.5020 0.5027 0.5027 0.5027 0.5027 0.5027 0.5020 0.5020 0.5004 0.4980 0.4965 0.4957 0.4957 0.4957 0.4957 0.4949 0.4957 0.4949 0.4949 0.4941 0.4926 0.4918 0.4926 0.4933 0.4926 0.4918 0.4910 0.4918 0.4918 0.4933 0.4941 0.4949 0.4957 0.4949 0.4933 0.4918 0.4902 0.4894 0.4894 0.4894 0.4894 0.4886 0.4871 0.4863 0.4863 0.4863 0.4863 0.4863 0.4871 0.4879 0.4871 0.4855 0.4863 0.4847 0.4832 0.4808 0.4792 0.4777 0.4761 0.4745 0.4730 0.4722 0.4722 0.4706 0.4691 0.4691 0.4699 0.4714 0.4722 0.4706 0.4675 0.4659 0.4644 0.4636 0.4628 0.4628 0.4628 0.4628 0.4636 0.4636 0.4612 0.4589 0.4558 0.4526 0.4495 0.4456 0.4432 0.4417 0.4401 0.4370 0.4346 0.4330 0.4323 0.4323 0.4315 0.4346 0.4354 0.4354 0.4330 0.4299 0.4276 0.4268 0.4276 0.4283 0.4276 0.4268 0.4276 0.4299 0.4315 0.4323 0.4330 0.4338 0.4346 0.4362 0.4377 0.4393 0.4393 0.4401 0.4401 0.4401 0.4401 0.4401 0.4409 0.4417 0.4440 0.4464 0.4511 0.4565 0.4612 0.4667 0.4706 0.4730 0.4738 0.4738 0.4738 0.4745 0.4730 0.4714 0.4699 0.4683 0.4652 0.4628 0.4620 0.4620 0.4612 0.4620 0.4636 0.4628 0.4628 0.4636 0.4644 0.4652 0.4659 0.4644 0.4620 0.4605 0.4597 0.4589 0.4573 0.4542 0.4511 0.4479 0.4456 0.4432 0.4417 0.4409 0.4393 0.4377 0.4362 0.4362 0.4354 0.4354 0.4346 0.4338 0.4323 0.4307 0.4299 0.4299 0.4299 0.4291 0.4283 0.4276 0.4268 0.4268 0.4260 0.4244 0.4236 0.4236 0.4244 0.4244 0.4236 0.4221 0.4205 0.4190 0.4182 0.4166 0.4158 0.4166 0.4213 0.4244 0.4236 0.4221 0.4205 0.4205 0.4197 0.4182 0.4174 0.4190 0.4190 0.4182 0.4166 0.4166 0.4174 0.4182 0.4197 0.4197 0.4182 0.4174 0.4150 0.4143 0.4143 0.4143 0.4143 0.4143 0.4143
0.5121 0.5114 0.5098 0.5090 0.5090 0.5074 0.5067 0.5051 0.5043 0.5043 0.5043 0.5035 0.5043 0.5051 0.5051 0.5051 0.5059 0.5059 0.5059 0.5059 0.5059 0.5051 0.5035 0.5020 0.5012 0.4996 0.4980 0.4988 0.4996 0.5004 0.5004 0.4988 0.4980 0.4973 0.4973 0.4965 0.4957 0.4941 0.4949 0.4949 0.4949 0.4941 0.4941 0.4926 0.4933 0.4949 0.4965 0.4973 0.4973 0.4973 0.4965 0.4933 0.4910 0.4910 0.4902 0.4902 0.4902 0.4894 0.4886 0.4879 0.4879 0.4879 0.4879 0.4886 0.4902 0.4902 0.4886 0.4871 0.4871 0.4871 0.4855 0.4824 0.4808 0.4777 0.4761 0.4753 0.4745 0.4738 0.4738 0.4722 0.4714 0.4714 0.4714 0.4722 0.4722 0.4706 0.4683 0.4659 0.4652 0.4644 0.4652 0.4659 0.4659 0.4644 0.4644 0.4636 0.4620 0.4597 0.4581 0.4550 0.4511 0.4487 0.4456 0.4432 0.4409 0.4393 0.4377 0.4377 0.4370 0.4362 0.4370 0.4385 0.4385 0.4385 0.4370 0.4346 0.4330 0.4307 0.4299 0.4283 0.4268 0.4260 0.4268 0.4276 0.4291 0.4299 0.4307 0.4323 0.4330 0.4338 0.4354 0.4362 0.4362 0.4362 0.4370 0.4370 0.4377 0.4385 0.4401 0.4417 0.4432 0.4464 0.4503 0.4558 0.4597 0.4636 0.4683 0.4722 0.4730 0.4730 0.4730 0.4730 0.4722 0.4714 0.4699 0.4675 0.4644 0.4628 0.4612 0.4597 0.4589 0.4597 0.4597 0.4597 0.4597 0.4612 0.4620 0.4628 0.4644 0.4636 0.4620 0.4605 0.4589 0.4565 0.4534 0.4518 0.4495 0.4464 0.4432 0.4417 0.4409 0.4409 0.4393 0.4370 0.4362 0.4354 0.4354 0.4346 0.4346 0.4330 0.4315 0.4299 0.4291 0.4291 0.4291 0.4283 0.4276 0.4268 0.4268 0.4268 0.4260 0.4244 0.4236 0.4236 0.4236 0.4236 0.4229 0.4221 0.4213 0.4213 0.4205 0.4190 0.4174 0.4190 0.4205 0.4221 0.4205 0.4182 0.4197 0.4197 0.4190 0.4182 0.4182 0.4190 0.4190 0.4182 0.4182 0.4182 0.4174 0.4182 0.4182 0.4190 0.4190 0.4174 0.4150 0.4135 0.4127 0.4127 0.4135 0.4135 0.4135
0.5161 0.5145 0.5129 0.5114 0.5098 0.5090 0.5090 0.5082 0.5074 0.5074 0.5074 0.5067 0.5059 0.5059 0.5067 0.5067 0.5067 0.5067 0.5067 0.5067 0.5067 0.5067 0.5043 0.5020 0.5012 0.5004 0.4996 0.4996 0.5012 0.5020 0.5020 0.5004 0.4996 0.4988 0.4996 0.4988 0.4980 0.4965 0.4957 0.4973 0.4980 0.4980 0.4973 0.4957 0.4949 0.4973 0.4980 0.4988 0.4988 0.4980 0.4973 0.4949 0.4933 0.4926 0.4918 0.4910 0.4910 0.4910 0.4902 0.4894 0.4902 0.4902 0.4894 0.4910 0.4918 0.4910 0.4894 0.4886 0.4886 0.4879 0.4871 0.4847 0.4816 0.4777 0.4753 0.4753 0.4753 0.4753 0.4753 0.4738 0.4722 0.4722 0.4722 0.4722 0.4722 0.4706 0.4691 0.4675 0.4659 0.4659 0.4667 0.4675 0.4659 0.4644 0.4636 0.4628 0.4628 0.4612 0.4589 0.4573 0.4542 0.4511 0.4487 0.4464 0.4448 0.4424 0.4409 0.4393 0.4393 0.4401 0.4417 0.4440 0.4440 0.4424 0.4385 0.4362 0.4354 0.4330 0.4315 0.4307 0.4291 0.4283 0.4276 0.4276 0.4276 0.4283 0.4291 0.4299 0.4315 0.4323 0.4330 0.4330 0.4338 0.4346 0.4346 0.4354 0.4370 0.4377 0.4385 0.4401 0.4417 0.4448 0.4487 0.4542 0.4589 0.4636 0.4667 0.4699 0.4714 0.4714 0.4714 0.4706 0.4699 0.4699 0.4691 0.4683 0.4667 0.4652 0.4620 0.4589 0.4581 0.4573 0.4573 0.4573 0.4581 0.4589 0.4597 0.4612 0.4620 0.4612 0.4612 0.4589 0.4565 0.4534 0.4511 0.4495 0.4471 0.4448 0.4432 0.4417 0.4401 0.4393 0.4377 0.4370 0.4354 0.4354 0.4346 0.4346 0.4338 0.4330 0.4315 0.4299 0.4291 0.4291 0.4291 0.4291 0.4283 0.4276 0.4268 0.4260 0.4252 0.4244 0.4236 0.4236 0.4236 0.4229 0.4221 0.4221 0.4213 0.4213 0.4205 0.4190 0.4182 0.4174 0.4174 0.4182 0.4174 0.4166 0.4174 0.4190 0.4190 0.4182 0.4182 0.4190 0.4190 0.4190 0.4190 0.4190 0.4182 0.4174 0.4166 0.4174 0.4182 0.4166 0.4150 0.4135 0.4119 0.4119 0.4119 0.4119 0.4119
0.5184 0.5176 0.5168 0.5153 0.5121 0.5114 0.5121 0.5121 0.5098 0.5106 0.5106 0.5082 0.5074 0.5067 0.5059 0.5059 0.5059 0.5067 0.5067 0.5067 0.5074 0.5067 0.5043 0.5035 0.5035 0.5020 0.5004 0.5004 0.5020 0.5027 0.5027 0.5012 0.5004 0.5004 0.4996 0.4988 0.4973 0.4973 0.4973 0.4980 0.4988 0.4996 0.4988 0.4980 0.4973 0.4973 0.4980 0.4988 0.4980 0.4980 0.4973 0.4957 0.4949 0.4933 0.4918 0.4910 0.4910 0.4910 0.4910 0.4910 0.4902 0.4902 0.4902 0.4902 0.4910 0.4910 0.4902 0.4894 0.4894 0.4886 0.4879 0.4871 0.4847 0.4808 0.4761 0.4753 0.4753 0.4761 0.4753 0.4738 0.4730 0.4730 0.4730 0.4722 0.4714 0.4706 0.4691 0.4675 0.4667 0.4675 0.4675 0.4675 0.4667 0.4644 0.4628 0.4628 0.4620 0.4605 0.4589 0.4573 0.4558 0.4534 0.4511 0.4503 0.4479 0.4456 0.4432 0.4409 0.4393 0.4401 0.4440 0.4464 0.4456 0.4432 0.4401 0.4377 0.4354 0.4338 0.4330 0.4323 0.4315 0.4307 0.4299 0.4291 0.4268 0.4260 0.4268 0.4283 0.4299 0.4307 0.4315 0.4323 0.4323 0.4330 0.4330 0.4338 0.4338 0.4346 0.4362 0.4377 0.4409 0.4424 0.4471 0.4526 0.4573 0.4620 0.4659 0.4675 0.4683 0.4691 0.4691 0.4683 0.4683 0.4683 0.4683 0.4683 0.4675 0.4667 0.4636 0.4597 0.4573 0.4565 0.4550 0.4550 0.4558 0.4573 0.4581 0.4597 0.4605 0.4597 0.4589 0.4565 0.4542 0.4511 0.4487 0.4464 0.4440 0.4424 0.4409 0.4393 0.4377 0.4370 0.4362 0.4346 0.4346 0.4346 0.4346 0.4338 0.4338 0.4323 0.4315 0.4299 0.4291 0.4299 0.4299 0.4299 0.4291 0.4283 0.4260 0.4252 0.4244 0.4244 0.4236 0.4229 0.4221 0.4229 0.4213 0.4213 0.4205 0.4205 0.4197 0.4190 0.4174 0.4174 0.4166 0.4166 0.4166 0.4158 0.4166 0.4174 0.4182 0.4182 0.4182 0.4190 0.4190 0.4197 0.4197 0.4190 0.4182 0.4174 0.4158 0.4150 0.4158 0.4158 0.4150 0.4135 0.4111 0.4096 0.4096 0.4103 0.4103
0.5168 0.5168 0.5176 0.5168 0.5161 0.5161 0.5153 0.5145 0.5129 0.5129 0.5129 0.5114 0.5082 0.5074 0.5067 0.5059 0.5067 0.5074 0.5082 0.5082 0.5082 0.5067 0.5059 0.5059 0.5051 0.5035 0.5027 0.5027 0.5027 0.5035 0.5020 0.5012 0.5012 0.5004 0.4996 0.4980 0.4980 0.4973 0.4973 0.4973 0.4980 0.4988 0.4980 0.4980 0.4973 0.4973 0.4980 0.4980 0.4980 0.4973 0.4965 0.4957 0.4941 0.4933 0.4918 0.4910 0.4918 0.4918 0.4918 0.4918 0.4902 0.4894 0.4894 0.4894 0.4902 0.4902 0.4902 0.4902 0.4879 0.4871 0.4863 0.4871 0.4855 0.4832 0.4800 0.4769 0.4769 0.4777 0.4769 0.4761 0.4745 0.4745 0.4738 0.4738 0.4738 0.4722 0.4706 0.4683 0.4675 0.4675 0.4675 0.4683 0.4683 0.4675 0.4652 0.4628 0.4620 0.4605 0.4597 0.4597 0.4581 0.4558 0.4534 0.4526 0.4511 0.4479 0.4448 0.4424 0.4409 0.4417 0.4448 0.4464 0.4448 0.4440 0.4417 0.4393 0.4362 0.4338 0.4338 0.4330 0.4323 0.4315 0.4307 0.4299 0.4276 0.4252 0.4260 0.4276 0.4291 0.4299 0.4307 0.4307 0.4307 0.4315 0.4323 0.4330 0.4330 0.4338 0.4338 0.4362 0.4385 0.4409 0.4448 0.4495 0.4558 0.4605 0.4628 0.4644 0.4652 0.4667 0.4667 0.4675 0.4675 0.4675 0.4675 0.4667 0.4659 0.4652 0.4636 0.4605 0.4581 0.4558 0.4542 0.4534 0.4534 0.4534 0.4550 0.4573 0.4589 0.4581 0.4565 0.4550 0.4526 0.4503 0.4471 0.4440 0.4432 0.4417 0.4401 0.4377 0.4370 0.4354 0.4354 0.4346 0.4346 0.4346 0.4346 0.4346 0.4338 0.4338 0.4323 0.4307 0.4291 0.4291 0.4299 0.4291 0.4276 0.4268 0.4252 0.4236 0.4236 0.4236 0.4229 0.4221 0.4213 0.4221 0.4213 0.4205 0.4205 0.4205 0.4197 0.4174 0.4174 0.4174 0.4166 0.4158 0.4158 0.4150 0.4150 0.4150 0.4158 0.4174 0.4174 0.4182 0.4190 0.4190 0.4182 0.4158 0.4166 0.4158 0.4150 0.4135 0.4143 0.4150 0.4150 0.4135 0.4111 0.4088 0.4088 0.4080 0.4080
0.5184 0.5184 0.5184 0.5184 0.5192 0.5176 0.5176 0.5168 0.5161 0.5168 0.5153 0.5129 0.5114 0.5098 0.5090 0.5090 0.5090 0.5106 0.5106 0.5106 0.5098 0.5090 0.5082 0.5090 0.5082 0.5059 0.5043 0.5035 0.5043 0.5043 0.5035 0.5020 0.5012 0.5004 0.4996 0.4988 0.4980 0.4980 0.4973 0.4973 0.4973 0.4973 0.4973 0.4973 0.4973 0.4980 0.4980 0.4980 0.4980 0.4980 0.4973 0.4957 0.4949 0.4949 0.4933 0.4933 0.4933 0.4933 0.4933 0.4926 0.4918 0.4902 0.4902 0.4902 0.4894 0.4894 0.4894 0.4886 0.4871 0.4847 0.4855 0.4863 0.4871 0.4863 0.4855 0.4824 0.4800 0.4808 0.4808 0.4785 0.4761 0.4753 0.4753 0.4753 0.4745 0.4738 0.4714 0.4699 0.4691 0.4691 0.4691 0.4706 0.4722 0.4714 0.4691 0.4667 0.4652 0.4644 0.4644 0.4636 0.4620 0.4589 0.4558 0.4534 0.4511 0.4487 0.4464 0.4440 0.4448 0.4456 0.4471 0.4464 0.4432 0.4424 0.4432 0.4409 0.4385 0.4362 0.4354 0.4346 0.4330 0.4315 0.4307 0.4299 0.4291 0.4276 0.4260 0.4268 0.4276 0.4283 0.4291 0.4291 0.4291 0.4299 0.4315 0.4323 0.4330 0.4330 0.4346 0.4362 0.4377 0.4401 0.4432 0.4487 0.4542 0.4581 0.4605 0.4620 0.4628 0.4644 0.4652 0.4652 0.4659 0.4659 0.4659 0.4644 0.4644 0.4636 0.4620 0.4605 0.4589 0.4565 0.4550 0.4550 0.4534 0.4503 0.4503 0.4534 0.4550 0.4550 0.4558 0.4534 0.4511 0.4479 0.4456 0.4448 0.4424 0.4409 0.4385 0.4377 0.4362 0.4354 0.4354 0.4354 0.4346 0.4346 0.4338 0.4338 0.4346 0.4338 0.4330 0.4307 0.4291 0.4291 0.4283 0.4276 0.4260 0.4252 0.4252 0.4252 0.4244 0.4244 0.4229 0.4221 0.4205 0.4205 0.4197 0.4190 0.4182 0.4190 0.4174 0.4158 0.4158 0.4166 0.4166 0.4158 0.4150 0.4143 0.4143 0.4143 0.4143 0.4158 0.4166 0.4174 0.4182 0.4174 0.4143 0.4127 0.4127 0.4135 0.4135 0.4135 0.4135 0.4127 0.4143 0.4135 0.4119 0.4103 0.4096 0.4088 0.4088
0.5239 0.5231 0.5223 0.5208 0.5208 0.5200 0.5192 0.5184 0.5176 0.5176 0.5161 0.5145 0.5137 0.5129 0.5121 0.5121 0.5121 0.5121 0.5121 0.5114 0.5106 0.5106 0.5114 0.5114 0.5106 0.5082 0.5059 0.5043 0.5043 0.5043 0.5035 0.5020 0.5012 0.5004 0.5004 0.5004 0.5004 0.4996 0.4988 0.4988 0.4980 0.4973 0.4980 0.4980 0.4988 0.4980 0.4980 0.4988 0.4988 0.4988 0.4980 0.4973 0.4973 0.4973 0.4965 0.4957 0.4957 0.4949 0.4949 0.4941 0.4941 0.4941 0.4941 0.4926 0.4910 0.4902 0.4879 0.4879 0.4871 0.4863 0.4871 0.4879 0.4894 0.4894 0.4886 0.4863 0.4839 0.4839 0.4839 0.4816 0.4792 0.4785 0.4769 0.4761 0.4753 0.4738 0.4722 0.4714 0.4714 0.4714 0.4722 0.4730 0.4745 0.4738 0.4722 0.4691 0.4691 0.4683 0.4675 0.4667 0.4636 0.4612 0.4581 0.4550 0.4526 0.4518 0.4503 0.4511 0.4511 0.4511 0.4495 0.4479 0.4456 0.4448 0.4432 0.4424 0.4401 0.4393 0.4385 0.4377 0.4354 0.4338 0.4338 0.4338 0.4338 0.4307 0.4283 0.4268 0.4268 0.4276 0.4283 0.4283 0.4283 0.4291 0.4315 0.4323 0.4315 0.4323 0.4330 0.4346 0.4362 0.4385 0.4417 0.4464 0.4518 0.4550 0.4573 0.4597 0.4605 0.4612 0.4620 0.4612 0.4620 0.4628 0.4628 0.4636 0.4636 0.4628 0.4612 0.4605 0.4589 0.4573 0.4565 0.4565 0.4534 0.4503 0.4487 0.4487 0.4503 0.4518 0.4511 0.4495 0.4487 0.4479 0.4471 0.4448 0.4417 0.4393 0.4385 0.4377 0.4370 0.4362 0.4354 0.4346 0.4338 0.4330 0.4323 0.4323 0.4330 0.4338 0.4323 0.4299 0.4283 0.4276 0.4276 0.4260 0.4244 0.4236 0.4252 0.4260 0.4252 0.4229 0.4221 0.4213 0.4197 0.4182 0.4166 0.4150 0.4150 0.4150 0.4150 0.4143 0.4143 0.4158 0.4158 0.4158 0.4150 0.4143 0.4143 0.4143 0.4150 0.4158 0.4166 0.4174 0.4174 0.4158 0.4143 0.4119 0.4119 0.4119 0.4119 0.4111 0.4088 0.4096 0.4103 0.4119 0.4119 0.4103 0.4096 0.4080 0.4080
0.5270 0.5270 0.5247 0.5239 0.5239 0.5231 0.5223 0.5208 0.5192 0.5176 0.5161 0.5153 0.5153 0.5145 0.5145 0.5145 0.5145 0.5145 0.5137 0.5129 0.5121 0.5129 0.5121 0.5114 0.5106 0.5090 0.5074 0.5067 0.5059 0.5043 0.5043 0.5027 0.5020 0.5020 0.5027 0.5035 0.5035 0.5027 0.5020 0.5004 0.4988 0.4996 0.5004 0.5012 0.5004 0.4996 0.4980 0.4996 0.4996 0.4996 0.4996 0.4988 0.4980 0.4980 0.4965 0.4965 0.4957 0.4949 0.4941 0.4949 0.4949 0.4957 0.4949 0.4949 0.4949 0.4926 0.4910 0.4902 0.4910 0.4910 0.4902 0.4910 0.4910 0.4902 0.4902 0.4886 0.4871 0.4863 0.4863 0.4847 0.4832 0.4816 0.4808 0.4785 0.4761 0.4745 0.4730 0.4738 0.4738 0.4745 0.4753 0.4761 0.4769 0.4769 0.4745 0.4722 0.4699 0.4706 0.4699 0.4683 0.4659 0.4628 0.4605 0.4589 0.4581 0.4581 0.4581 0.4573 0.4558 0.4534 0.4518 0.4511 0.4511 0.4479 0.4448 0.4432 0.4424 0.4417 0.4424 0.4424 0.4401 0.4385 0.4377 0.4370 0.4362 0.4346 0.4315 0.4283 0.4276 0.4276 0.4276 0.4268 0.4268 0.4283 0.4307 0.4307 0.4307 0.4307 0.4315 0.4323 0.4346 0.4377 0.4409 0.4448 0.4487 0.4534 0.4558 0.4581 0.4589 0.4589 0.4589 0.4597 0.4597 0.4605 0.4605 0.4612 0.4620 0.4612 0.4612 0.4605 0.4589 0.4573 0.4565 0.4558 0.4534 0.4511 0.4479 0.4456 0.4456 0.4456 0.4456 0.4464 0.4471 0.4479 0.4456 0.4440 0.4409 0.4385 0.4377 0.4370 0.4370 0.4362 0.4354 0.4346 0.4330 0.4323 0.4315 0.4323 0.4330 0.4323 0.4323 0.4291 0.4283 0.4276 0.4276 0.4260 0.4244 0.4244 0.4252 0.4252 0.4236 0.4213 0.4205 0.4197 0.4182 0.4158 0.4150 0.4143 0.4127 0.4127 0.4127 0.4135 0.4143 0.4150 0.4158 0.4150 0.4150 0.4143 0.4135 0.4143 0.4143 0.4150 0.4158 0.4174 0.4158 0.4143 0.4119 0.4127 0.4119 0.4103 0.4096 0.4080 0.4080 0.4072 0.4096 0.4111 0.4111 0.4103 0.4088 0.4056 0.4056
0.5286 0.5278 0.5262 0.5262 0.5262 0.5255 0.5255 0.5247 0.5215 0.5192 0.5184 0.5176 0.5184 0.5176 0.5161 0.5161 0.5168 0.5176 0.5168 0.5153 0.5153 0.5153 0.5137 0.5121 0.5114 0.5098 0.5090 0.5090 0.5082 0.5074 0.5067 0.5059 0.5043 0.5043 0.5051 0.5051 0.5051 0.5051 0.5051 0.5043 0.5043 0.5035 0.5043 0.5035 0.5020 0.5012 0.5012 0.5012 0.5020 0.5020 0.5020 0.5012 0.4988 0.4980 0.4973 0.4957 0.4949 0.4941 0.4941 0.4949 0.4957 0.4957 0.4957 0.4965 0.4965 0.4957 0.4941 0.4941 0.4949 0.4949 0.4949 0.4933 0.4918 0.4910 0.4902 0.4886 0.4879 0.4879 0.4871 0.4871 0.4871 0.4855 0.4839 0.4816 0.4792 0.4769 0.4761 0.4745 0.4745 0.4753 0.4761 0.4761 0.4761 0.4761 0.4753 0.4730 0.4722 0.4714 0.4714 0.4706 0.4683 0.4652 0.4644 0.4644 0.4644 0.4659 0.4644 0.4620 0.4605 0.4589 0.4558 0.4550 0.4526 0.4495 0.4479 0.4464 0.4471 0.4471 0.4471 0.4464 0.4456 0.4432 0.4409 0.4393 0.4385 0.4370 0.4346 0.4315 0.4276 0.4276 0.4260 0.4244 0.4244 0.4252 0.4268 0.4276 0.4283 0.4299 0.4307 0.4315 0.4330 0.4354 0.4385 0.4417 0.4448 0.4479 0.4503 0.4526 0.4550 0.4565 0.4573 0.4597 0.4597 0.4581 0.4573 0.4573 0.4589 0.4597 0.4589 0.4589 0.4581 0.4565 0.4558 0.4550 0.4534 0.4518 0.4495 0.4456 0.4432 0.4424 0.4432 0.4440 0.4456 0.4448 0.4440 0.4417 0.4401 0.4377 0.4362 0.4362 0.4354 0.4346 0.4346 0.4338 0.4330 0.4323 0.4323 0.4323 0.4315 0.4307 0.4299 0.4283 0.4268 0.4260 0.4268 0.4260 0.4244 0.4244 0.4252 0.4244 0.4221 0.4197 0.4190 0.4174 0.4158 0.4150 0.4150 0.4135 0.4127 0.4127 0.4127 0.4135 0.4143 0.4143 0.4143 0.4143 0.4135 0.4135 0.4127 0.4127 0.4127 0.4127 0.4135 0.4135 0.4127 0.4111 0.4103 0.4111 0.4111 0.4096 0.4088 0.4080 0.4088 0.4096 0.4103 0.4111 0.4111 0.4111 0.4072 0.4049 0.4049
0.5309 0.5301 0.5294 0.5294 0.5294 0.5278 0.5262 0.5247 0.5223 0.5215 0.5208 0.5223 0.5239 0.5223 0.5192 0.5184 0.5200 0.5192 0.5176 0.5176 0.5168 0.5176 0.5161 0.5153 0.5137 0.5121 0.5114 0.5114 0.5098 0.5098 0.5106 0.5098 0.5090 0.5090 0.5082 0.5082 0.5082 0.5082 0.5090 0.5082 0.5082 0.5082 0.5074 0.5067 0.5059 0.5059 0.5051 0.5051 0.5059 0.5059 0.5051 0.5027 0.5012 0.4996 0.4988 0.4965 0.4957 0.4957 0.4965 0.4973 0.4973 0.4980 0.4973 0.4980 0.4988 0.4980 0.4980 0.4980 0.4980 0.4988 0.4973 0.4949 0.4933 0.4918 0.4910 0.4894 0.4886 0.4886 0.4886 0.4886 0.4879 0.4863 0.4847 0.4839 0.4824 0.4808 0.4792 0.4769 0.4753 0.4753 0.4761 0.4761 0.4753 0.4753 0.4753 0.4745 0.4738 0.4722 0.4722 0.4722 0.4714 0.4699 0.4691 0.4691 0.4691 0.4683 0.4667 0.4644 0.4628 0.4597 0.4573 0.4542 0.4534 0.4511 0.4495 0.4495 0.4495 0.4503 0.4487 0.4471 0.4471 0.4471 0.4448 0.4432 0.4417 0.4401 0.4385 0.4346 0.4330 0.4299 0.4276 0.4244 0.4229 0.4221 0.4221 0.4229 0.4260 0.4283 0.4291 0.4291 0.4307 0.4323 0.4362 0.4393 0.4409 0.4424 0.4440 0.4471 0.4503 0.4526 0.4542 0.4550 0.4558 0.4550 0.4542 0.4542 0.4550 0.4558 0.4558 0.4558 0.4558 0.4550 0.4542 0.4542 0.4542 0.4534 0.4511 0.4471 0.4440 0.4424 0.4417 0.4417 0.4424 0.4424 0.4417 0.4401 0.4385 0.4362 0.4354 0.4354 0.4338 0.4330 0.4330 0.4323 0.4323 0.4323 0.4315 0.4315 0.4299 0.4291 0.4291 0.4268 0.4252 0.4252 0.4252 0.4244 0.4229 0.4229 0.4229 0.4221 0.4205 0.4182 0.4166 0.4150 0.4143 0.4143 0.4135 0.4127 0.4119 0.4119 0.4127 0.4127 0.4127 0.4135 0.4135 0.4127 0.4119 0.4119 0.4119 0.4119 0.4119 0.4119 0.4127 0.4127 0.4111 0.4096 0.4096 0.4103 0.4111 0.4119 0.4096 0.4096 0.4103 0.4111 0.4111 0.4111 0.4111 0.4096 0.4064 0.4041 0.4041
0.5364 0.5372 0.5372 0.5380 0.5341 0.5301 0.5270 0.5247 0.5247 0.5239 0.5255 0.5270 0.5294 0.5286 0.5255 0.5239 0.5247 0.5231 0.5215 0.5200 0.5200 0.5208 0.5200 0.5184 0.5176 0.5161 0.5153 0.5153 0.5145 0.5145 0.5153 0.5145 0.5145 0.5145 0.5129 0.5121 0.5129 0.5137 0.5121 0.5121 0.5129 0.5137 0.5121 0.5114 0.5098 0.5098 0.5106 0.5098 0.5106 0.5106 0.5082 0.5059 0.5035 0.5027 0.5020 0.5012 0.5004 0.5004 0.5004 0.5012 0.5012 0.5004 0.5012 0.5020 0.5027 0.5020 0.5020 0.5020 0.5027 0.5020 0.4988 0.4965 0.4957 0.4949 0.4926 0.4910 0.4910 0.4910 0.4902 0.4894 0.4879 0.4879 0.4855 0.4847 0.4847 0.4832 0.4816 0.4792 0.4777 0.4777 0.4769 0.4761 0.4753 0.4753 0.4761 0.4753 0.4745 0.4738 0.4730 0.4738 0.4738 0.4738 0.4722 0.4714 0.4706 0.4691 0.4683 0.4659 0.4628 0.4605 0.4573 0.4558 0.4542 0.4526 0.4511 0.4511 0.4534 0.4542 0.4526 0.4503 0.4495 0.4495 0.4487 0.4471 0.4464 0.4448 0.4417 0.4401 0.4377 0.4354 0.4323 0.4283 0.4260 0.4229 0.4221 0.4221 0.4236 0.4260 0.4268 0.4268 0.4276 0.4299 0.4338 0.4362 0.4354 0.4370 0.4409 0.4440 0.4471 0.4503 0.4518 0.4511 0.4503 0.4503 0.4511 0.4503 0.4503 0.4511 0.4518 0.4526 0.4534 0.4534 0.4534 0.4534 0.4534 0.4534 0.4518 0.4495 0.4471 0.4440 0.4409 0.4401 0.4393 0.4401 0.4401 0.4385 0.4362 0.4354 0.4354 0.4346 0.4330 0.4323 0.4315 0.4315 0.4315 0.4315 0.4307 0.4299 0.4283 0.4276 0.4268 0.4268 0.4252 0.4252 0.4252 0.4236 0.4221 0.4221 0.4213 0.4205 0.4182 0.4166 0.4150 0.4135 0.4127 0.4127 0.4135 0.4127 0.4119 0.4119 0.4119 0.4119 0.4127 0.4127 0.4127 0.4119 0.4119 0.4119 0.4127 0.4135 0.4135 0.4135 0.4127 0.4119 0.4096 0.4088 0.4088 0.4096 0.4127 0.4127 0.4111 0.4103 0.4103 0.4103 0.4103 0.4103 0.4096 0.4080 0.4049 0.4041 0.4041
0.5403 0.5411 0.5427 0.5435 0.5403 0.5348 0.5317 0.5301 0.5294 0.5294 0.5294 0.5317 0.5325 0.5325 0.5309 0.5301 0.5301 0.5301 0.5286 0.5262 0.5255 0.5247 0.5247 0.5239 0.5223 0.5215 0.5223 0.5223 0.5215 0.5208 0.5200 0.5200 0.5215 0.5223 0.5215 0.5208 0.5215 0.5192 0.5184 0.5192 0.5208 0.5208 0.5215 0.5192 0.5161 0.5145 0.5137 0.5161 0.5176 0.5153 0.5137 0.5114 0.5082 0.5082 0.5098 0.5090 0.5082 0.5090 0.5082 0.5067 0.5059 0.5059 0.5067 0.5074 0.5067 0.5059 0.5051 0.5051 0.5067 0.5067 0.5027 0.4996 0.4988 0.4973 0.4965 0.4957 0.4957 0.4941 0.4918 0.4894 0.4894 0.4886 0.4879 0.4871 0.4871 0.4855 0.4832 0.4824 0.4824 0.4808 0.4792 0.4769 0.4769 0.4769 0.4769 0.4769 0.4761 0.4761 0.4761 0.4761 0.4761 0.4753 0.4745 0.4738 0.4722 0.4706 0.4691 0.4667 0.4644 0.4636 0.4628 0.4612 0.4605 0.4573 0.4542 0.4558 0.4573 0.4581 0.4573 0.4550 0.4534 0.4518 0.4511 0.4503 0.4487 0.4456 0.4432 0.4409 0.4385 0.4370 0.4346 0.4315 0.4291 0.4268 0.4252 0.4244 0.4244 0.4244 0.4244 0.4252 0.4268 0.4283 0.4299 0.4299 0.4299 0.4323 0.4362 0.4409 0.4456 0.4479 0.4487 0.4479 0.4471 0.4471 0.4471 0.4471 0.4471 0.4479 0.4479 0.4487 0.4495 0.4511 0.4526 0.4526 0.4534 0.4534 0.4526 0.4511 0.4495 0.4479 0.4448 0.4417 0.4401 0.4385 0.4377 0.4362 0.4354 0.4346 0.4354 0.4346 0.4338 0.4330 0.4323 0.4323 0.4315 0.4307 0.4307 0.4299 0.4283 0.4268 0.4252 0.4244 0.4244 0.4252 0.4252 0.4236 0.4213 0.4205 0.4205 0.4197 0.4190 0.4174 0.4158 0.4143 0.4127 0.4135 0.4143 0.4135 0.4127 0.4119 0.4111 0.4111 0.4111 0.4111 0.4103 0.4103 0.4103 0.4119 0.4135 0.4143 0.4143 0.4143 0.4135 0.4111 0.4096 0.4088 0.4088 0.4096 0.4119 0.4127 0.4111 0.4096 0.4088 0.4088 0.4096 0.4096 0.4080 0.4064 0.4049 0.4033 0.4033
